153.584381 219.549347 155.775345 
154.247131 220.192535 155.719147 
152.849579 218.189102 151.790878 
153.303879 219.401184 155.724945 
153.937454 219.861298 155.715652 
155.723022 218.055725 146.894516 
155.474701 217.811249 146.822433 
149.787567 214.406311 148.118011 
149.092300 216.694000 156.596405 
156.012024 218.319061 146.919571 
148.018936 215.352371 156.029266 
156.248459 218.595215 146.999466 
151.260117 216.350739 152.204422 
152.211624 219.846710 156.417175 
152.648285 220.165405 156.889633 
149.419479 217.322922 156.410706 
150.078629 213.118591 149.271133 
151.511826 216.650070 152.125198 
152.409515 220.013794 156.653030 
150.173859 213.428162 149.531769 
148.922897 214.281616 150.745483 
153.705109 217.571365 147.918640 
149.162094 214.832565 148.475296 
152.242386 220.406097 157.115860 
149.029099 216.975555 156.931747 
152.837341 220.319901 160.006729 
153.080154 218.038010 150.088715 
152.780106 219.476257 156.147583 
152.136917 217.686829 152.448715 
154.226257 217.445526 147.326065 
150.858627 218.451279 156.416306 
156.550354 217.419632 145.866776 
151.669449 217.037704 152.355560 
153.403687 215.082809 146.074127 
151.887512 217.394943 152.441315 
147.448242 213.801575 151.870422 
147.172073 212.717209 149.014740 
150.830795 216.011993 152.363831 
154.268478 216.223541 146.110367 
147.799774 213.983414 151.895340 
155.878281 216.957611 145.801682 
150.630020 218.912827 157.385544 
150.394379 215.914001 148.565369 
149.985565 215.825653 148.696991 
151.245636 216.057724 151.429062 
151.185028 216.097961 148.324570 
151.536133 216.292770 148.461365 
151.432632 216.220337 148.408554 
151.100616 215.925430 151.217270 
149.194031 215.371201 148.625793 
151.517288 220.030777 157.280914 
149.393341 214.976608 151.401794 
151.817612 220.361603 157.284409 
149.104294 215.145508 148.616211 
151.347992 219.831009 157.294464 
151.913193 220.415527 157.282516 
149.250717 215.457306 148.533752 
149.102509 215.035400 148.559464 
150.843140 214.044861 147.553375 
149.569672 215.690323 148.527481 
149.666748 215.280655 151.083588 
151.205902 219.661194 157.166931 
150.782303 215.797455 151.347122 
149.872513 215.440826 151.010773 
148.997269 214.447769 151.026962 
149.117889 214.602676 151.124313 
149.849426 215.423813 151.124191 
150.901123 219.289062 157.287491 
153.723587 215.384491 146.037155 
150.741257 219.094299 157.375671 
150.286591 215.625778 151.185440 
153.820801 215.661072 146.067001 
154.607101 216.473328 146.089554 
148.779541 215.884293 154.229095 
148.949356 216.048035 154.270798 
158.433914 218.739075 146.053452 
149.097885 217.048706 156.806366 
146.346771 213.384674 151.914368 
147.933273 213.235413 149.494125 
148.432419 215.651978 154.230652 
150.544037 217.792313 161.951385 
150.185608 217.591995 161.769867 
150.915359 218.053299 161.987381 
150.870636 218.532120 159.989151 
146.606873 215.210159 156.966248 
152.160751 219.544601 160.334427 
152.575348 219.993195 160.292725 
152.441788 219.847198 160.318558 
151.978485 219.354294 160.360580 
151.448578 218.991486 160.012924 
151.268646 218.824219 160.075668 
151.638596 219.109406 160.158401 
148.797485 215.531540 156.594604 
148.883392 215.606888 156.613892 
147.805664 215.366135 157.246674 
142.626144 212.394333 162.351379 
149.403732 217.254303 161.235153 
148.805618 216.948547 161.699768 
150.572418 218.207809 160.301849 
150.359161 218.059021 160.225357 
149.532166 217.469284 160.184570 
150.192505 217.945618 160.156647 
149.839310 217.696274 160.065613 
146.150024 215.296570 157.709106 
145.850189 213.551590 154.170731 
146.883942 215.145660 155.774582 
145.960419 212.611511 149.729416 
145.108200 213.263428 154.375809 
153.074326 220.558914 159.394119 
145.830643 215.025772 159.971680 
145.410461 214.751587 159.317184 
145.008347 214.373016 159.315628 
144.694946 214.044037 159.203888 
144.282944 212.784103 153.213974 
146.100403 215.240845 161.161728 
144.496384 213.829727 159.656891 
145.843018 215.235077 158.203934 
149.137527 217.277725 159.849304 
146.199783 215.316986 161.637711 
150.655548 217.762314 163.470200 
150.590073 217.715332 163.441956 
147.220535 216.141663 160.822006 
147.561218 216.376892 160.964111 
150.960846 218.029709 163.494492 
147.816315 216.530167 160.985672 
148.586624 216.941330 160.390991 
145.409424 213.150467 151.938614 
149.652771 217.266388 162.541794 
148.257965 216.764008 160.651230 
151.647171 218.576584 162.763031 
146.074875 212.805328 149.639908 
144.759567 213.058975 154.107559 
144.767990 213.981918 156.538574 
149.211411 217.251984 157.466888 
146.648300 215.574265 163.564484 
142.509827 211.862900 152.642563 
142.456238 211.694290 153.248550 
147.957260 216.460190 164.743256 
143.877243 212.515503 153.109299 
147.538406 216.188278 164.760269 
148.286911 216.662704 164.765701 
147.188492 215.951569 164.647476 
143.536606 212.304123 153.228058 
143.966385 212.351456 156.934174 
143.953781 213.429459 160.056595 
146.244431 215.341217 162.052719 
143.811325 212.104523 156.929703 
143.285629 211.744843 157.339676 
152.947678 219.640472 163.600433 
145.074066 214.851746 158.025467 
145.226669 214.981125 158.035568 
144.769836 214.482620 158.024338 
148.822235 216.910858 163.078796 
144.659866 214.320480 157.951111 
146.730652 215.768143 161.203171 
145.385147 214.592880 160.634857 
144.273331 212.828659 156.453003 
145.148087 214.382782 160.622147 
148.511047 216.763123 163.511749 
144.818665 214.080917 160.501587 
144.680191 213.958542 160.497223 
143.444748 211.612656 150.064590 
144.448929 213.244736 156.635773 
149.408432 217.160660 162.742538 
142.306244 211.860977 150.905655 
146.611984 210.798599 148.258652 
144.825806 211.176422 149.288269 
143.673630 213.236801 161.190506 
142.286560 211.250244 155.005478 
141.967545 210.978821 154.878738 
143.118454 212.805252 161.840530 
142.374634 211.283875 155.219086 
141.421570 210.413498 155.119858 
141.016769 209.935944 155.571777 
144.726562 214.078949 164.011093 
144.952118 214.256882 163.943008 
143.994995 213.481384 162.069992 
145.941956 215.079163 165.760345 
146.476044 215.461304 165.307602 
144.234680 213.690186 164.249176 
146.853546 215.734863 165.221771 
142.825134 211.829773 154.154099 
143.160645 212.061020 153.985489 
142.426956 211.479752 154.458939 
145.420715 214.622375 162.636810 
143.992203 213.489624 163.957092 
147.645050 216.264648 163.504120 
148.127243 216.554886 163.524673 
147.439224 216.131256 163.526886 
148.027054 216.497925 163.484970 
147.247253 216.003540 163.457382 
145.173248 214.418091 162.945618 
142.405853 211.087173 157.140503 
142.081116 211.733215 151.391266 
153.321930 220.259033 161.596848 
144.032410 213.509644 162.706070 
142.325043 212.119827 162.370682 
141.318573 211.117828 162.240997 
142.119812 211.939728 162.727600 
143.816711 213.343369 162.608459 
143.032074 212.722092 163.391190 
142.233322 211.433670 153.757385 
142.185211 210.951263 156.093719 
141.639359 210.460709 156.474731 
141.949997 210.741348 156.232986 
141.138412 209.977646 156.879471 
136.794281 199.619431 151.540161 
141.283127 210.402802 153.911118 
142.957077 212.624878 160.458969 
142.279129 211.021484 156.205643 
142.747467 212.459625 160.801041 
141.397232 210.589828 159.502563 
143.552887 213.137619 162.914520 
141.694229 210.929901 159.535034 
143.129593 212.724014 159.973053 
141.791000 210.997482 153.648697 
140.932175 209.927628 154.274857 
142.391678 211.518951 154.080246 
129.409363 196.437225 167.365891 
141.342575 210.978210 161.125870 
139.151291 207.762512 154.375534 
137.422958 207.313690 163.034012 
138.807098 207.375473 153.676407 
137.810074 207.751724 163.180252 
138.072098 208.014404 163.168182 
139.591629 209.058533 160.945404 
138.482742 206.917511 153.935120 
137.856155 206.468674 156.879349 
136.666275 205.682175 160.379181 
139.093567 208.720123 161.395264 
140.556656 210.390182 166.114212 
140.287582 209.011368 155.428970 
135.302872 203.315018 156.499893 
136.362503 205.168091 160.139694 
138.749817 208.538651 162.068100 
140.524078 209.339935 155.404312 
135.636551 203.756287 156.535522 
140.196915 210.017624 165.917038 
134.530777 202.438248 156.778519 
136.092850 204.786057 160.142609 
137.121948 206.863342 162.430801 
135.070969 203.019730 156.503540 
136.784851 206.384354 162.489670 
138.380951 208.275604 162.502686 
139.366348 208.092392 152.965973 
141.632584 209.545959 151.100616 
135.943176 204.179504 156.730408 
134.703125 203.062714 161.191513 
140.105225 208.630508 152.738663 
140.985641 210.682999 161.828156 
137.086075 205.324432 155.124588 
139.933090 209.759491 166.060669 
133.882614 201.739532 156.977051 
136.189682 204.455795 156.513245 
141.718796 209.952271 150.796951 
139.514420 209.363342 166.585510 
135.013336 203.486862 161.564651 
138.711166 206.255585 152.073761 
141.315079 211.142502 163.857422 
138.442383 206.725372 153.240814 
136.699722 205.890137 160.996124 
137.913589 206.645981 157.432053 
141.716812 210.464157 150.997147 
137.935913 206.913193 158.322266 
139.903564 209.432327 161.737091 
138.666870 206.051071 152.089264 
139.747574 208.321976 156.005325 
136.687820 206.157944 162.125778 
141.953735 211.295029 150.835648 
141.941452 209.255661 150.480621 
142.287872 208.927536 150.027344 
141.051163 210.719177 161.526627 
139.993042 208.614441 156.039627 
140.446716 209.461182 158.836685 
141.718292 211.550339 164.118286 
141.812851 210.905197 150.952576 
135.701599 204.383804 161.045074 
140.169724 209.686844 161.733047 
136.279907 206.093231 165.558609 
138.048630 207.050186 158.328476 
137.885696 206.699890 157.784531 
136.601913 204.875214 155.921799 
142.175278 208.825729 150.160980 
140.315842 209.859528 161.837692 
138.612762 208.480713 166.521759 
137.466705 206.231781 157.933167 
137.469894 205.885544 155.794098 
136.705811 206.033722 161.512070 
140.791855 208.852448 151.980209 
137.213440 206.058670 158.589676 
141.145615 210.806335 161.424057 
141.933594 211.484711 151.340378 
141.073120 210.227341 159.485825 
135.995270 203.253464 153.671921 
137.582809 207.309845 170.374588 
138.882324 208.743454 166.480484 
141.255905 208.792435 151.308365 
142.607849 212.368179 163.654327 
138.478256 206.485855 152.736237 
140.762985 209.682388 154.488159 
135.246994 203.772385 161.222229 
142.773148 212.508575 163.628067 
140.946838 210.814209 167.035507 
140.775787 209.873764 159.295654 
136.087967 203.390091 153.622711 
136.532394 203.839172 153.288177 
133.901886 202.151352 160.110428 
138.664856 207.378906 157.065643 
134.240372 202.529984 160.340195 
140.794800 210.600510 164.550583 
137.290588 204.769760 153.057678 
136.684418 203.098740 152.496750 
139.966705 209.143997 159.512894 
142.240005 212.040634 163.837799 
137.593948 201.895218 151.451782 
137.518524 207.427582 164.348984 
138.711273 207.245956 154.963409 
138.841751 207.530396 152.456039 
137.860626 207.760849 162.035980 
130.173737 196.314758 172.509628 
137.723434 207.640274 164.450851 
138.064224 207.980469 164.372375 
137.691345 207.569153 161.939499 
138.516937 207.015244 155.065567 
138.227295 208.135162 164.372955 
139.678497 209.268860 162.005325 
139.504013 208.792542 159.820984 
138.938416 208.417297 160.368103 
140.307297 210.093033 164.728348 
136.719406 205.520248 159.266815 
134.879822 202.494675 155.641556 
133.632523 200.055237 154.695816 
139.677063 208.260010 151.950104 
138.323395 208.052429 161.205322 
133.385727 201.396347 157.851974 
136.988983 199.845764 151.521591 
135.691162 200.041473 152.168228 
139.052734 203.004120 150.192261 
141.294144 206.154694 149.101715 
135.406937 198.728607 151.971085 
136.188751 199.145660 151.672058 
145.903595 211.997772 149.780411 
145.750473 211.861008 149.832306 
145.862915 211.202148 148.939743 
132.730347 200.721649 160.959732 
131.250793 198.816299 159.647217 
131.539749 199.198395 159.608200 
130.946716 198.483368 159.648987 
129.905136 197.427399 160.741501 
130.428986 197.946701 160.118378 
129.161804 196.754532 161.037506 
132.889053 200.958725 160.461349 
131.982010 200.789703 166.367905 
133.165634 201.325089 159.822113 
134.039963 202.366714 163.613113 
132.877182 201.416977 166.480377 
132.493301 200.430618 161.924484 
131.792862 199.568008 158.499069 
133.660767 202.051071 164.241135 
133.466965 201.963547 164.861450 
132.567795 200.503891 158.351501 
132.339142 200.234406 158.353348 
133.150955 201.300827 159.194839 
134.549591 203.500153 165.628189 
132.893158 197.591263 154.027573 
133.142471 201.705338 165.368561 
134.271759 203.025436 165.696365 
133.065567 198.062775 154.063477 
134.805847 203.935867 165.458115 
134.152313 202.622482 164.350357 
132.150696 199.867981 161.075104 
135.035187 204.357422 165.550629 
133.143875 201.241043 158.599411 
132.648895 197.126450 154.051422 
135.556549 198.313522 151.831604 
134.104889 202.706146 165.373810 
133.096634 198.645660 154.376907 
130.628662 195.685043 155.342697 
135.521973 205.098679 165.414368 
132.665359 200.677811 159.011047 
134.398758 202.716064 162.379761 
131.999374 200.209381 162.971497 
129.148285 196.938705 159.544891 
129.500549 197.281723 159.368439 
130.108566 197.758987 158.810196 
131.246964 198.548218 160.994827 
131.626282 199.084030 160.948242 
131.351379 198.679443 160.997498 
131.085464 198.659134 158.351181 
129.963486 197.158920 162.322266 
131.767975 199.289719 160.931274 
131.238281 198.841080 158.359726 
131.142441 200.385132 165.068848 
130.357773 197.574310 162.138351 
131.346329 198.983215 158.372665 
130.739883 198.293106 158.377579 
130.794342 198.023483 161.500580 
131.019516 198.285522 161.221436 
129.789536 197.507797 159.057907 
133.013779 201.064682 161.710724 
128.738510 196.379440 159.920303 
132.842377 200.921768 159.350845 
132.556534 201.255905 165.305679 
133.988556 202.217148 162.597763 
128.678101 195.800797 159.312393 
128.653595 195.423553 159.192078 
128.663757 196.116348 159.761139 
129.826965 194.720016 155.615463 
128.554703 194.400925 156.950714 
129.990860 195.102631 155.680222 
127.225037 189.326981 161.477295 
128.605362 194.901230 159.555084 
128.476791 194.220367 156.950363 
128.822968 195.915314 161.317932 
128.290085 193.772507 158.325638 
129.231079 196.370819 162.215103 
128.904312 195.593033 161.966110 
129.034729 195.991226 162.056519 
128.508636 194.252625 159.259735 
129.501083 196.612961 162.744827 
128.946548 195.347519 162.536957 
128.533386 193.802612 159.870178 
130.569733 192.538651 154.065796 
128.257309 192.603806 159.012009 
128.315186 193.169617 158.945770 
128.152939 192.127701 159.003754 
128.035721 191.518295 159.862503 
128.277237 193.951096 157.334549 
128.888184 196.384781 161.017899 
129.593918 192.703568 155.240448 
128.436050 194.297806 157.159103 
128.830338 196.273315 160.955734 
130.904114 190.475693 154.651154 
129.091736 195.643341 162.835571 
130.726501 191.530670 154.163528 
129.644974 189.370010 155.924759 
131.292862 189.473358 155.111710 
129.704742 188.959106 155.899796 
131.085129 189.888153 154.963348 
133.719009 194.976517 152.371674 
127.828865 190.391327 160.881592 
127.542221 189.900375 160.727402 
128.140747 190.754562 161.536560 
128.333160 191.296295 161.643753 
132.462112 189.306870 154.184128 
128.747253 188.821136 156.554871 
128.749680 194.838699 161.804916 
131.961166 189.395233 154.630554 
128.171295 192.911407 157.887833 
128.689301 188.320297 156.596649 
127.625343 190.618546 159.705750 
127.558800 190.385544 159.670624 
132.274033 188.436035 153.858795 
128.400879 192.408463 160.116852 
128.482819 192.901703 160.064468 
128.524246 193.289871 164.529373 
128.787720 193.739197 164.841248 
128.921326 194.275421 164.657196 
128.031677 192.706131 165.058792 
131.845398 188.416916 154.523148 
129.750107 185.647507 155.507751 
129.706802 186.008743 155.534073 
128.311142 191.479416 162.074539 
133.462296 193.509171 152.392761 
128.443939 186.157318 156.292603 
127.346519 186.870010 157.541489 
128.416428 187.098572 156.596329 
129.070251 186.055573 155.885864 
133.453674 192.517929 152.462265 
128.459412 186.609924 156.414764 
126.897484 186.893173 158.203079 
126.625565 188.563126 161.574234 
126.403107 188.109726 161.313461 
126.193031 187.569550 161.188766 
126.431183 186.218094 158.558441 
127.844185 190.028534 161.920486 
125.812325 186.398849 165.464218 
124.733994 184.574707 162.844101 
126.601761 188.771332 166.562592 
126.385925 187.620514 166.365280 
125.702263 185.818359 165.014481 
126.461510 188.200012 166.399780 
123.886772 182.687241 162.582794 
125.021202 184.616913 165.545761 
126.958298 189.906555 167.018143 
126.134476 187.038864 166.013214 
123.967438 183.358612 162.859924 
126.802132 189.347824 166.837112 
123.850899 182.092636 162.313538 
124.611847 178.696457 160.597870 
123.827606 181.526993 162.288940 
124.663910 178.116104 160.576157 
123.844688 180.951645 162.202576 
124.288124 183.898849 165.676514 
125.475067 185.175354 159.980469 
123.897614 180.333359 162.274902 
125.488632 185.507843 163.191544 
124.538162 179.377731 160.389725 
128.025421 179.987534 157.599091 
127.114395 190.469543 167.347931 
124.894463 184.613831 164.299393 
125.544037 185.703293 163.281631 
124.073257 183.610504 162.521683 
124.384933 179.829117 160.561874 
124.703033 184.330566 161.377655 
124.009750 179.923370 161.994949 
124.824226 177.451523 160.078186 
123.935654 183.328522 165.086624 
125.557808 185.855438 163.833450 
126.117905 184.651779 158.338593 
125.871536 185.420334 165.939529 
129.175018 182.797318 156.385025 
125.024452 184.669983 160.784485 
128.867859 183.482925 156.263550 
127.652588 181.569855 157.301590 
241.875488 250.642761 198.379852 
125.843285 186.481049 160.850708 
125.647804 185.941666 160.665512 
125.417717 184.497955 159.489761 
129.125000 181.793472 156.732498 
125.845985 187.859055 165.030258 
125.963089 188.163834 165.212799 
126.021339 188.451614 165.238144 
126.238464 189.037247 165.446609 
125.521652 186.184479 163.981522 
123.903748 182.727905 163.659607 
126.498955 179.035019 158.256287 
123.883080 182.070801 163.467026 
123.873161 181.776001 163.322021 
123.884880 181.430405 163.382156 
126.150635 178.438141 158.586472 
123.902863 180.872406 163.154327 
242.491547 250.417480 193.409027 
241.443329 250.174545 194.876358 
242.495453 249.896194 197.116638 
239.710281 253.804413 192.607803 
240.182190 250.575150 202.569916 
240.242340 251.118713 199.838974 
242.879608 249.155167 200.157532 
241.652008 251.886292 191.464859 
240.427414 251.231964 198.238937 
244.042313 250.809906 191.830109 
241.068253 250.725449 200.131287 
243.069702 249.234299 199.165512 
243.570801 247.885162 200.289597 
242.762054 249.487183 199.895309 
241.069107 250.940491 199.592209 
243.122116 249.171677 198.907242 
243.155823 250.936905 192.404724 
240.782486 250.263443 201.782440 
243.345200 248.689926 198.635483 
241.143951 249.794373 203.738892 
241.715927 249.332809 202.992325 
244.128754 247.016144 201.338989 
243.336807 250.889908 192.414978 
240.722534 253.585068 191.956619 
243.195465 249.032013 198.722855 
241.092178 252.798584 192.326630 
237.216354 253.672302 198.393570 
242.763702 248.501648 201.838318 
240.244492 250.746872 201.100449 
243.234741 250.996933 191.294693 
241.150787 252.917664 191.253174 
237.420776 253.031494 201.371964 
241.259201 249.790405 202.422501 
243.686829 247.460220 201.970062 
241.326706 252.560486 191.948074 
241.372498 250.250183 200.830597 
246.447113 245.849426 193.590408 
241.378952 250.742538 199.786606 
241.224777 249.750443 202.985016 
244.218460 247.037750 200.407776 
248.192581 243.213684 195.189774 
244.117355 249.601730 193.256226 
240.456436 252.138718 193.308945 
244.349503 249.485840 193.287888 
241.840149 250.262207 193.853912 
241.586746 250.389175 193.370148 
241.688705 250.355408 193.569321 
245.008087 249.916290 191.120087 
244.945145 250.093704 192.209976 
244.256821 250.144714 191.309006 
245.195923 250.135849 191.704971 
243.197098 249.147812 194.506821 
242.949371 249.316391 194.623672 
242.802429 249.449982 194.636261 
244.660187 249.166351 193.508713 
247.944092 243.413025 194.399841 
246.104263 245.136032 197.355957 
246.586670 245.595001 193.201691 
245.321625 247.647751 192.485474 
247.322067 244.971268 191.277405 
247.789215 243.297897 193.948944 
246.380646 245.556503 192.614136 
248.753036 245.172119 191.112625 
245.342712 247.793930 192.815918 
246.791931 244.451370 197.418091 
246.611313 245.675598 195.488113 
245.062653 248.240463 193.813309 
245.723434 246.288834 194.989410 
245.598389 246.394684 192.610626 
247.559677 242.508087 193.192337 
245.413025 248.383041 190.014664 
247.281891 245.852493 189.943680 
246.086533 245.265594 196.846466 
244.680298 248.506882 194.179962 
246.325592 245.426056 196.166809 
246.244873 245.740921 191.349823 
245.626190 246.416519 191.360580 
245.126297 247.470642 193.883301 
247.016739 245.137421 195.893921 
246.259293 244.836700 198.236877 
246.372391 245.957214 195.112274 
244.835709 246.285797 196.403488 
245.301682 247.830032 193.190613 
240.216629 251.108856 197.315033 
244.285965 247.151123 195.701920 
243.610275 248.891495 194.433975 
246.966095 245.142441 192.564392 
244.560349 247.443939 195.043365 
245.411377 247.803284 190.308273 
248.035187 243.575516 194.900681 
246.193542 246.075439 194.993317 
245.434967 246.451141 194.990082 
243.976562 247.812164 195.412369 
247.409973 244.971252 191.644135 
247.783737 242.848434 193.754486 
245.102631 247.166992 194.340225 
245.320297 245.923325 196.394028 
248.160583 243.072113 194.704330 
244.983322 246.026260 197.634033 
245.212357 247.378479 191.534790 
245.238953 247.490372 191.859711 
241.760544 250.083069 195.346481 
246.431625 245.881973 195.250259 
244.685822 246.554779 196.038681 
245.416901 248.806534 191.088287 
246.692886 245.366302 191.311646 
245.611481 245.730499 196.391327 
247.314575 244.993790 195.655365 
247.027313 245.213333 193.370056 
247.865097 244.096786 194.876755 
247.567261 245.617416 189.948593 
247.767776 243.769440 194.121902 
245.578125 249.060333 191.698090 
247.222809 243.877808 197.515289 
248.053940 242.936783 196.672684 
244.138718 246.931839 197.655136 
240.547470 251.225647 198.628830 
246.162674 246.674759 190.067764 
246.977356 245.137939 191.332840 
247.203171 244.308578 196.691711 
243.633667 248.472366 194.991043 
247.899826 245.372208 189.898834 
247.179092 245.314194 194.430084 
244.903091 248.384171 194.037155 
248.230850 244.547760 191.858994 
248.793198 245.217453 190.879456 
247.623276 244.125320 193.810287 
246.850311 245.665710 194.277679 
248.098770 243.234116 195.907135 
246.401871 246.403061 190.111847 
245.622986 249.196228 192.025223 
247.419571 244.994370 191.923386 
246.560501 245.855286 193.963745 
244.788284 247.290115 194.860092 
243.327515 249.066727 194.467270 
244.565521 248.786682 194.012238 
247.330338 244.860199 193.681137 
246.449707 246.004227 194.396530 
245.434204 246.714188 191.321594 
245.686401 247.157150 190.094711 
245.305878 246.983963 191.333725 
245.979340 245.965942 191.407669 
247.993347 243.312820 192.083054 
244.488327 246.834457 195.835983 
242.080948 249.928101 195.585510 
248.460571 244.981781 189.888214 
247.725937 243.900650 196.161301 
245.347168 246.924301 192.582657 
247.700821 244.266922 194.358810 
247.663345 244.604691 194.949875 
248.499420 243.228043 190.910065 
248.707657 245.159576 190.508896 
242.418854 250.121109 197.803589 
245.236832 246.703705 194.778076 
247.117966 245.260239 193.965454 
245.348175 248.682480 190.763077 
248.031021 242.370087 193.876526 
247.646149 243.673050 193.668106 
248.496994 242.469650 195.825836 
247.557846 243.628632 193.247650 
243.586182 248.601425 194.872177 
241.587677 250.408813 196.512787 
248.411560 242.712540 195.072632 
245.948349 245.952026 192.634933 
242.613571 249.685669 196.793961 
247.831116 244.128403 195.592377 
248.553024 244.248611 191.511627 
245.841232 246.386078 193.741974 
245.619476 246.544388 193.237518 
244.949097 246.046600 197.074249 
248.736526 243.866333 190.989258 
247.730637 243.218613 197.307831 
241.640396 250.799957 198.564987 
240.283859 250.791077 196.152679 
245.070648 246.000092 198.184967 
246.052689 247.042542 189.490143 
246.827576 245.737885 194.849548 
247.637451 243.939209 192.808151 
242.602493 249.877808 197.540771 
244.104736 246.891205 197.100418 
241.207489 250.948822 198.114365 
242.782867 249.680603 197.674301 
241.569122 250.803070 198.248398 
241.166916 250.544098 196.287323 
245.500946 245.585831 197.626099 
247.170547 245.352249 195.237091 
240.140717 251.010651 196.863647 
247.173813 246.201370 189.345627 
240.441574 250.847015 196.545853 
245.530136 247.414810 190.102051 
246.315170 245.470703 192.016983 
245.435349 246.823105 193.734634 
240.816971 251.146790 198.865005 
247.450287 243.431152 198.074951 
248.087830 243.141876 191.864990 
249.040710 245.162292 190.929230 
248.716232 244.107468 191.326157 
246.536499 246.057419 190.377029 
242.480667 250.164520 198.749924 
245.515976 249.523438 191.078903 
245.578995 246.302994 191.996613 
247.459518 244.134705 196.432404 
241.792038 250.646591 198.048721 
243.584976 248.687531 194.750092 
243.822281 247.809204 195.629196 
247.854416 244.245544 192.363052 
241.862411 250.675568 198.790497 
241.485519 250.342758 196.009674 
244.627167 249.068710 193.648529 
241.814819 250.211349 196.193970 
243.717361 247.936066 195.634201 
240.673889 251.013977 197.473480 
245.982407 246.294708 194.291122 
240.030060 250.942184 196.487671 
247.774368 242.101624 193.344421 
242.745041 249.627945 197.219818 
248.240479 243.002823 191.516251 
247.619614 243.966217 196.318619 
244.537552 246.459000 197.643478 
242.166214 250.437149 199.124573 
242.685120 249.485931 196.236206 
240.723953 250.668747 196.167496 
241.248947 250.612808 196.702911 
236.866684 253.393600 197.181091 
239.520844 252.396027 194.032135 
239.219910 252.744415 193.990814 
239.502701 251.501297 194.613632 
242.895401 249.194229 195.114426 
242.573685 249.509491 195.209625 
239.497528 251.962219 194.319870 
242.390717 250.091736 199.678574 
242.241394 249.781372 195.055710 
239.405090 251.535217 198.254166 
239.007294 251.718582 200.620941 
240.042786 250.710159 195.075668 
239.807281 251.320541 194.348145 
238.645432 253.512558 198.713379 
243.003571 249.078598 196.624130 
239.807358 250.890915 195.913025 
238.230225 253.370468 198.433655 
240.566086 250.958878 193.459839 
242.880661 249.423279 197.193695 
242.868790 249.533127 197.548904 
242.865204 249.622070 198.049225 
239.255463 251.259384 196.808411 
238.203888 253.755203 198.767853 
240.876602 250.367676 194.995544 
240.025818 251.193680 194.124603 
240.230621 251.152588 193.850357 
240.498657 251.580460 193.380859 
238.703735 253.367340 198.557816 
240.811462 251.937271 192.878464 
240.131516 252.299774 193.582672 
241.057938 250.455231 195.733597 
241.336487 250.945465 198.522858 
242.259583 250.241226 199.623398 
243.214630 248.906326 199.260117 
241.928116 250.510696 199.553802 
238.118637 253.861786 199.279083 
239.687149 252.805084 193.639542 
242.377762 249.833832 194.439377 
238.161285 253.650558 199.625488 
243.218323 248.625549 195.794098 
240.535294 250.438736 194.357239 
238.665054 252.017273 198.128647 
237.780060 253.125153 198.012009 
238.589615 253.556534 198.670883 
236.677933 253.735107 197.873184 
241.637756 250.186691 200.646301 
243.349152 248.596085 199.296692 
243.129227 248.984207 199.573868 
243.454285 248.230331 199.789368 
244.211533 247.085587 199.929596 
243.199631 248.628296 200.069794 
242.455719 248.708145 202.414536 
241.985916 249.159561 202.425873 
241.101105 250.326019 200.992828 
241.080536 250.588089 200.419235 
240.694550 250.178894 202.787552 
242.067963 249.237839 201.866592 
242.893829 249.403992 199.626572 
240.496521 250.455612 201.749405 
240.499008 250.790939 200.532196 
243.980682 247.323807 200.348572 
241.502609 249.587418 202.427017 
241.365189 250.393600 200.540131 
240.819885 250.516220 200.875305 
243.236542 248.439163 200.333069 
241.584702 249.664200 201.868530 
242.901642 248.973740 200.409271 
242.973892 248.631409 200.819244 
241.672165 249.938293 201.087067 
243.433838 247.707260 202.619598 
243.547852 248.197983 198.988861 
243.236969 248.938049 198.407883 
240.808807 250.325272 201.471771 
241.373352 249.933228 201.559814 
241.958054 249.118851 202.988297 
243.503372 248.286194 198.310181 
243.266754 248.839813 198.079803 
242.340378 250.302139 198.938797 
243.625839 247.995850 199.334961 
244.169708 247.109192 198.788834 
243.826981 247.633270 198.751343 
244.396194 246.821609 198.836655 
243.597748 248.007675 198.028900 
243.764389 247.731445 198.576401 
244.163422 247.015152 198.194885 
243.252670 248.828278 197.802795 
243.652908 247.920700 198.242447 
243.381760 248.586060 198.299438 
243.707474 247.823318 198.405777 
242.862534 249.654602 198.287445 
243.565598 247.950531 197.519089 
243.397964 248.355911 197.382141 
243.678574 247.699738 197.586960 
243.972488 247.418060 199.051682 
242.934204 249.440414 197.598434 
243.298462 248.689285 197.659744 
242.924332 249.511520 197.924774 
243.278809 248.592636 197.091980 
242.929550 249.464005 197.673355 
243.467300 248.395920 198.647125 
243.984695 247.401855 199.409515 
242.975006 249.446335 198.082169 
243.091721 248.997467 197.013779 
243.020599 249.210220 197.292923 
243.485779 248.216675 197.732468 
242.984879 249.310806 197.431122 
242.776047 249.392212 196.378448 
242.932159 249.266327 196.920288 
243.249023 248.582932 196.665115 
243.474289 248.093506 197.160049 
243.983490 247.336685 198.482986 
243.151031 248.833923 196.839096 
242.758881 249.354767 196.011322 
243.000046 249.020950 196.184570 
242.878067 249.198181 196.067383 
243.560822 247.828659 196.936890 
243.470947 248.027206 196.466797 
243.606110 247.757278 197.151566 
243.557098 247.815948 196.531052 
243.793671 247.469589 197.626297 
243.121460 248.828461 196.431015 
243.619766 247.680893 196.517761 
243.727646 247.464203 196.614410 
243.487335 248.137985 195.858765 
242.801407 249.270630 195.806961 
243.169876 248.756271 195.480225 
242.943665 249.086212 195.414246 
243.111023 248.811401 195.977814 
243.368927 248.341187 195.874069 
243.314209 248.407486 196.425125 
243.377029 248.256653 196.481979 
242.670151 249.611252 194.527100 
242.594482 249.685852 194.477844 
243.613403 248.226257 195.381073 
243.396118 248.835632 194.754349 
243.142212 249.018127 194.832703 
243.036713 249.108063 194.887772 
243.468643 248.441681 195.286407 
241.950211 250.040161 194.390320 
243.002136 249.453171 194.284103 
243.900787 247.163147 196.847595 
243.848984 247.669769 195.749756 
243.957901 248.294678 194.876602 
243.934937 247.169861 197.380707 
241.761566 250.065903 194.596649 
243.939377 247.232010 196.251007 
243.265213 248.928299 194.776505 
243.212906 248.963058 194.797302 
244.004761 247.351028 195.890244 
243.330811 249.276016 194.163849 
244.124741 247.963928 195.085983 
243.965317 247.241989 197.912323 
243.554184 249.155930 194.131790 
243.824692 248.549927 194.691025 
242.862457 249.535675 194.344788 
240.942657 250.416000 195.365204 
244.127014 247.482864 195.548584 
244.273270 247.634644 195.225342 
242.000687 249.936707 195.181854 
243.147766 249.585739 193.943268 
243.406616 249.237030 194.146805 
241.157211 250.247147 194.651047 
243.860367 248.992706 194.121826 
243.029404 249.866714 193.708450 
242.474564 249.988358 194.003067 
244.481750 248.314926 194.473602 
244.086212 248.882523 194.121384 
242.786728 249.994003 193.746674 
244.430679 247.792297 194.908035 
240.661743 250.497269 195.328888 
243.802124 248.611923 194.632446 
244.171982 248.398071 194.602249 
241.742645 250.054733 194.853622 
242.212067 250.007263 194.204041 
241.141083 250.254211 194.214874 
243.808640 249.509796 193.542984 
243.389496 249.712036 193.600922 
242.479553 250.198975 193.699387 
243.209839 249.786819 193.656235 
243.508484 249.679443 193.549469 
240.438751 250.518234 195.003891 
243.812027 249.267288 193.821503 
240.835785 250.323349 194.495804 
240.674057 250.387924 194.670044 
240.255234 250.636185 195.361816 
244.369370 248.584686 194.306259 
240.819138 250.341339 194.067932 
244.119492 249.358368 193.541061 
244.415436 247.293640 195.362366 
241.487335 250.282761 193.820328 
243.393753 250.238922 193.081665 
243.818054 250.022537 192.991287 
244.878006 248.705811 193.892914 
242.533798 250.589005 193.139694 
243.206207 250.292191 193.158478 
242.374008 250.649643 192.843613 
242.316147 250.291763 193.656448 
244.720566 248.187881 194.326187 
240.726395 250.418808 193.858841 
240.664185 250.497894 193.682632 
244.237228 249.302155 193.554092 
243.038406 250.359711 193.192032 
242.804565 250.482681 193.176941 
242.960236 250.409500 193.185394 
242.051102 250.363953 193.607758 
244.655853 247.645798 194.756958 
241.928284 250.442383 193.378799 
244.769928 249.362610 193.239746 
240.197403 250.625793 194.739410 
243.977951 249.929901 192.984680 
244.126083 249.849213 192.978745 
244.867020 249.527542 192.958817 
242.093491 250.552689 193.091141 
241.762772 250.489441 193.077393 
242.231689 250.603073 192.967651 
240.478638 250.468536 194.676834 
244.210480 247.015701 196.044983 
244.574661 246.967316 195.497681 
244.700958 247.103821 195.163666 
244.319504 246.659302 196.739471 
244.486954 246.595932 196.379517 
244.113266 246.887009 196.747055 
244.309616 246.671021 197.376663 
244.351593 246.719574 197.934219 
244.645294 246.532654 198.874115 
244.884155 246.268616 198.860352 
244.466324 246.789185 199.973160 
244.768616 246.263260 197.927643 
244.546494 246.678619 199.184586 
244.451813 246.810379 199.728989 
244.734711 246.233658 197.372116 
244.443085 246.818390 199.491730 
244.278458 246.924301 198.517227 
244.302689 246.968597 199.144913 
244.485596 246.667450 198.527557 
244.643585 246.349991 196.745987 
244.185043 247.118881 199.120316 
244.362335 246.760712 198.211594 
245.349426 245.811691 199.576553 
245.124771 246.013885 198.854294 
244.809219 246.386749 200.609222 
245.063660 246.133392 200.158554 
244.942139 246.258789 200.384064 
245.220428 245.888687 198.518143 
244.731491 246.391327 198.539413 
244.791092 246.402298 199.193436 
244.817581 246.253296 198.206985 
244.975922 246.133636 198.525833 
244.611725 246.524078 198.546814 
244.912048 246.269897 199.196442 
245.019485 246.173584 199.561966 
244.765091 246.459366 200.061768 
244.508987 246.712051 200.498749 
244.881897 246.331802 199.845535 
244.703278 246.524063 200.177094 
244.642258 246.584015 200.290253 
239.915604 250.786377 195.494492 
240.154114 250.746017 195.797668 
240.023972 250.759674 195.640869 
239.762802 250.864929 195.439087 
239.567902 250.995895 195.379776 
239.752930 250.972137 196.258255 
240.258957 250.614090 194.416382 
239.203720 251.205154 195.887161 
239.391434 251.197952 195.202896 
239.526413 251.282669 197.302567 
238.918152 251.370575 196.174362 
239.286041 251.403931 195.038742 
238.863342 251.474121 196.972000 
238.886398 251.545547 197.345688 
238.856125 251.443497 195.960129 
239.625610 251.406952 197.962189 
238.819977 251.532578 195.739838 
239.387894 251.098282 195.624161 
239.263947 251.338318 197.175400 
239.703781 251.149475 194.631744 
239.480179 251.053040 196.082321 
239.124451 251.547104 197.805283 
238.482361 251.678909 196.553726 
239.169464 251.872116 194.712387 
239.217102 251.622025 194.879120 
239.428528 251.321533 194.905792 
238.662415 251.562851 196.783295 
239.939194 251.536621 194.076782 
239.347534 251.477097 197.897141 
240.190765 250.898010 194.057739 
239.736313 251.436035 198.369003 
239.802505 251.865860 194.073456 
239.582809 251.342255 197.612869 
240.196533 250.725845 194.249161 
239.698380 250.927216 195.189651 
239.680038 251.422699 198.131363 
239.163223 252.089905 194.548584 
239.530472 251.164444 196.819595 
238.608246 251.905579 195.376068 
238.312576 252.119385 195.442429 
239.157974 251.802704 198.858078 
238.196930 251.918564 196.659958 
238.542297 251.854202 197.591080 
238.706741 251.708725 195.570190 
238.750504 251.754425 197.751129 
239.004852 251.743546 198.225113 
238.891693 252.130600 198.775955 
240.297043 251.292755 198.783386 
238.872787 251.751266 197.983673 
238.207596 251.914215 196.344696 
239.226837 251.759155 199.217712 
239.660324 251.645172 194.335312 
238.861664 251.624161 195.443619 
238.681091 251.539352 196.238449 
239.500229 251.548294 198.631317 
238.143814 252.266251 197.589050 
238.103745 252.167007 197.328613 
238.501236 252.585068 198.312836 
237.762863 252.466431 195.546677 
238.088943 252.089127 197.070450 
238.229630 252.533569 197.979965 
238.219269 252.499329 194.865616 
238.649063 252.658752 198.523407 
237.785187 252.325195 196.587891 
239.157272 252.301727 194.395004 
238.568954 252.629089 194.447983 
237.974731 252.462509 195.205399 
237.930679 252.205673 196.839111 
239.003952 252.474319 194.369278 
237.762726 252.730759 197.537460 
238.546295 252.148895 195.100616 
238.852203 252.527618 194.418900 
237.449722 252.651031 195.572861 
238.111465 252.128784 195.786072 
240.060974 251.274902 199.437805 
238.229065 251.942474 196.063950 
238.404282 251.905396 195.730408 
237.541229 252.585953 196.605392 
238.554260 251.792648 195.693100 
238.181259 253.017380 198.217377 
239.262299 251.665710 198.553085 
238.700577 252.041672 195.064377 
238.919418 251.929810 198.509598 
239.814529 251.427765 198.695496 
239.652115 251.484528 198.680801 
240.215561 251.289948 199.075745 
238.777985 252.766388 198.849487 
237.079208 253.064240 196.747070 
238.701141 252.814804 198.636414 
237.291077 253.087433 197.233261 
237.214539 253.076981 197.054169 
236.851883 252.981262 195.712219 
236.978333 253.074280 196.569443 
237.322357 253.175415 197.463470 
236.909286 253.058487 196.351715 
236.864655 252.944733 195.412781 
237.411682 253.252258 197.747757 
236.916870 252.889420 195.108093 
237.947632 252.705536 194.500671 
238.401031 252.139114 197.844406 
238.690247 252.345932 198.473923 
237.968094 252.661865 197.770966 
237.562576 252.536331 195.868408 
237.915710 252.451645 197.431564 
238.257889 252.695236 194.456757 
238.672974 253.090454 198.575226 
237.678162 252.416504 196.169449 
238.291061 251.941711 197.240433 
238.448792 252.271744 198.058777 
237.849213 252.322723 195.842117 
239.457108 251.561539 199.444305 
237.924377 253.191040 198.179626 
238.760422 252.372681 198.623611 
239.030441 251.988419 199.158951 
238.785400 252.076263 198.447220 
237.938950 252.507080 197.555664 
238.266312 252.313217 195.157120 
238.040604 252.297226 195.497055 
237.902405 252.341736 197.185684 
238.527420 252.916077 198.427765 
238.312012 252.013962 197.479309 
238.000046 252.819855 197.946014 
238.571243 252.255966 198.225662 
238.044464 252.057114 196.428757 
237.154205 253.816345 198.840973 
238.781647 252.832062 198.969955 
237.737396 253.632278 198.593445 
236.771011 253.426208 197.123703 
236.345581 253.257050 195.959717 
237.872574 253.411880 198.356369 
236.890793 253.882202 199.046722 
237.096695 252.722977 194.435684 
236.626999 253.178146 196.175781 
237.424316 252.693130 194.372513 
237.040802 253.537216 197.794861 
237.412415 252.796646 196.858566 
237.557175 253.433258 198.225494 
238.851349 252.420624 199.125854 
238.731598 253.180801 198.723343 
236.758438 253.377960 196.982224 
238.035522 253.493042 198.471771 
238.718399 253.102951 198.657333 
237.286880 253.740265 200.076447 
237.585083 252.708023 194.171646 
237.349075 253.463989 198.064545 
237.152130 252.824173 195.930862 
237.458954 252.808090 197.019470 
236.969315 253.258408 197.016083 
237.510574 252.802322 197.131668 
237.272675 252.839081 196.570496 
237.186111 252.860596 196.362167 
237.190536 252.796310 195.330170 
237.138992 253.354004 197.516388 
238.775711 252.435364 198.695847 
236.862839 253.561798 197.603821 
237.077988 253.291351 197.275177 
237.534088 252.909256 197.383881 
239.140976 251.828445 199.473038 
237.314987 252.834976 196.686325 
236.766037 253.261810 196.714706 
237.179489 253.877792 199.365479 
237.146759 252.817886 195.644348 
237.618286 253.010574 197.680618 
237.157883 252.857727 196.244537 
236.918289 253.712708 198.108688 
238.682831 253.122833 198.590515 
238.817276 252.422775 198.830109 
237.101273 253.296066 197.324036 
237.556000 252.962204 197.514313 
236.552078 253.091293 195.489792 
237.165649 252.805344 195.494156 
237.255081 252.771484 195.028198 
237.021423 253.276291 197.146576 
237.679825 252.598267 195.239532 
236.874283 253.013443 196.035889 
236.524460 253.935104 198.878906 
238.523514 252.366196 194.832336 
238.534714 253.368042 198.531845 
237.508972 252.670303 195.253418 
237.904617 252.604187 194.908646 
236.378647 253.694153 197.497116 
235.589005 253.527161 196.259048 
236.749771 252.788895 194.496002 
235.976135 253.603989 197.058044 
238.573410 252.973083 199.618225 
235.654404 253.475845 195.685608 
235.916779 253.541840 196.797455 
236.034500 253.830170 197.840836 
238.605743 253.479218 199.193542 
238.575455 253.652573 199.093506 
238.585327 253.317596 199.359055 
236.680389 252.909943 194.866837 
235.611526 253.462265 195.338516 
237.490799 253.553970 198.374283 
231.230209 255.373749 196.742828 
236.649048 253.906937 198.615005 
236.068573 253.041473 194.628082 
236.418030 253.780960 197.772110 
236.735168 253.838776 198.329315 
237.446014 253.816666 198.964783 
238.490845 253.866653 198.914520 
236.621567 253.488327 197.107483 
236.791183 253.895248 199.289948 
234.874954 253.704529 197.531723 
235.553345 253.402573 194.716019 
234.836578 253.690842 197.292938 
237.718475 253.389038 198.270325 
238.465103 253.879730 198.960770 
236.378723 253.840057 197.964035 
236.550339 252.756973 194.014404 
234.942062 253.741409 196.058731 
238.830933 252.476547 199.212097 
238.378250 252.225693 201.136475 
237.394455 253.718414 198.666443 
237.372147 253.669586 198.538239 
236.633087 253.842438 198.211975 
236.587906 253.021149 195.190582 
237.603027 253.882538 199.268036 
237.082504 253.808304 198.724304 
236.411530 253.306061 196.325623 
237.870377 253.813080 198.916458 
236.690262 253.405151 196.964935 
236.291031 253.218857 195.606354 
237.011047 252.805283 194.778610 
237.344925 252.723511 194.699219 
236.659286 253.243744 196.493530 
234.634186 253.734482 197.122101 
236.698334 253.261108 196.615585 
236.557037 253.061340 195.331848 
236.585770 253.132690 195.836563 
236.353882 253.955139 198.915222 
237.201416 253.868790 199.564606 
235.020004 253.779449 198.047073 
236.017395 253.916199 198.190033 
236.022034 253.909653 198.152863 
236.050720 253.932159 198.306870 
238.390915 253.871094 199.090042 
236.091476 253.966751 198.647446 
236.044113 253.946075 198.415176 
236.043045 253.955215 198.494385 
236.607529 253.919891 199.125275 
236.497711 252.971664 194.893951 
238.446472 253.888123 198.983643 
236.019958 253.412292 196.257294 
236.034515 253.439926 196.433563 
236.452545 253.546860 197.115829 
235.976013 253.402008 196.090820 
234.732895 253.773773 198.052231 
235.998550 253.720291 197.457138 
235.844772 253.271057 194.986160 
235.032013 253.847260 198.433853 
235.205078 253.623230 196.606125 
235.073364 253.865219 198.524673 
236.342484 253.806305 197.817215 
235.196533 253.626160 196.443985 
235.098465 253.888550 198.698990 
237.605911 253.885422 199.436554 
235.477905 253.801346 197.909454 
236.050690 253.935593 199.384003 
236.002335 253.360184 195.806366 
235.287018 253.624374 195.852417 
236.189850 253.430664 196.564255 
235.951935 253.330750 195.475449 
235.791473 253.865768 198.039841 
235.752136 253.773560 197.671143 
238.568405 253.796249 198.846283 
235.700058 253.673325 197.275208 
236.232788 253.643341 197.267609 
236.244507 253.508438 196.871872 
238.692291 253.419281 198.896576 
238.329376 253.897232 198.990829 
236.790497 253.879318 199.512909 
235.974014 253.347321 195.637756 
235.252258 253.622665 196.157288 
236.223145 253.770691 197.657822 
235.643860 253.615555 197.018097 
235.265366 253.648056 195.085968 
235.303024 253.628357 195.539810 
238.340683 253.798798 199.268921 
235.931870 253.308594 195.315720 
236.209396 253.860367 197.969437 
238.835251 251.895996 200.594955 
235.039612 253.654114 196.829498 
238.720261 253.158478 199.082123 
234.496384 253.794647 198.030472 
238.486832 253.853104 198.855103 
238.712097 253.326218 198.934280 
238.639679 253.608337 198.842880 
236.221191 253.467926 196.729263 
235.600510 253.596405 196.899384 
238.037796 252.532059 201.274445 
237.087677 253.861679 199.088150 
236.156799 253.112488 194.949905 
238.023361 253.590546 198.566772 
236.392868 252.896301 194.577087 
234.830536 253.691681 196.973465 
236.868835 253.755737 200.170090 
235.738541 253.918716 199.762283 
235.286133 253.944382 199.223007 
236.467667 253.770309 200.287109 
236.336700 253.949509 198.572357 
235.550903 253.945068 199.569046 
235.038498 253.935165 199.220520 
230.726273 255.793594 196.601349 
236.483261 253.927002 198.541229 
235.372147 253.954330 199.442337 
237.612411 253.875092 199.511795 
236.519241 253.915833 199.299088 
234.601730 253.845062 196.317062 
236.388626 253.925522 199.300842 
236.796646 253.865860 199.618439 
235.214966 253.748917 197.779846 
236.048035 253.963272 198.999069 
234.472549 253.815109 196.844437 
235.074951 253.669922 197.277695 
237.613831 253.812256 199.737167 
234.786697 253.847260 195.888916 
234.466797 253.778091 197.211258 
234.795395 253.900833 198.925049 
235.828278 253.871368 200.386505 
235.486771 253.940842 200.412582 
235.888992 253.847626 200.696548 
236.129120 253.849197 200.011871 
234.364151 254.127701 195.901627 
234.271515 254.121597 196.138962 
234.356598 253.823502 197.113297 
234.078247 253.900436 197.815262 
233.972626 254.025101 197.131195 
234.073914 253.904984 197.570969 
234.534027 253.901337 196.238495 
234.380905 253.846710 196.922287 
237.039734 253.818161 199.865707 
237.433533 253.822128 199.788345 
234.299332 253.846283 198.189560 
234.580582 253.757446 197.795120 
234.054520 253.913055 198.120483 
234.240402 254.026917 199.332138 
234.159958 253.965820 198.901566 
234.076065 253.953751 198.695007 
233.963913 253.948700 197.925537 
234.892700 253.950638 199.352463 
234.655197 253.987106 195.654907 
235.002838 253.872299 194.601410 
234.417542 254.239273 195.285919 
235.165787 253.746445 194.451859 
234.281601 254.316574 195.435196 
234.488663 254.236084 194.511414 
234.311234 253.857285 198.331924 
233.854294 254.606049 195.810837 
234.113922 254.423508 195.559753 
234.717422 254.064789 194.956680 
233.882080 254.202347 196.791183 
234.985519 253.849945 195.019333 
234.069321 254.291046 196.143982 
234.033203 254.192093 196.490021 
234.686554 254.029816 195.352402 
235.437851 253.937698 198.942871 
237.739914 253.714127 199.892975 
234.614380 254.008209 199.571396 
235.369614 253.952225 199.784500 
234.529999 253.944748 199.124405 
236.640930 253.819672 199.922256 
237.446106 253.614685 200.280212 
237.855759 253.174988 200.566513 
237.182434 253.644394 200.379807 
238.229034 253.077591 200.145493 
234.355423 254.129898 199.960556 
235.135406 254.020477 200.453766 
237.163910 253.271423 201.200958 
236.941040 253.668777 200.474075 
234.169952 254.151062 199.834076 
238.451050 252.728500 200.082169 
234.747681 254.077957 200.196121 
238.379623 253.358063 199.662949 
235.552567 253.937607 200.737000 
238.389679 253.673126 199.374939 
235.247925 253.973251 200.105331 
238.401855 253.594757 199.436020 
236.741455 253.695953 200.510880 
237.886627 253.753448 199.695770 
235.614258 253.915756 200.081940 
236.165100 253.796112 200.472641 
236.260956 253.744995 200.792282 
238.291016 253.776428 199.355072 
238.388794 253.516068 199.520737 
236.092758 253.894363 199.694031 
238.716644 252.904129 199.285858 
236.507645 253.534790 201.499359 
237.990967 253.397980 200.121246 
237.823669 253.622910 199.990265 
236.237091 253.695099 201.296402 
237.289902 253.437332 200.736511 
236.053757 253.773727 201.277496 
235.868912 253.840393 201.222061 
237.162048 253.466370 200.792023 
237.517456 253.221085 200.888123 
237.738541 252.962830 201.025055 
238.690323 252.449310 199.796143 
238.729858 252.561295 199.545975 
238.022415 252.656158 201.034576 
