191.471069 154.198380 181.002258 
191.495407 154.199539 181.440338 
191.166672 154.293427 182.032578 
191.182800 154.290634 182.497498 
191.195358 154.283798 182.917313 
191.319946 154.241394 183.704285 
191.338425 154.234299 184.172440 
191.271561 154.245514 184.633957 
191.288132 154.240936 185.107803 
191.376892 154.220764 185.821152 
191.306808 154.239197 186.317001 
191.268631 154.254593 186.838638 
191.348053 154.228256 187.473480 
191.312195 154.202042 187.959061 
191.204987 154.178345 188.305725 
191.426453 153.945984 189.423737 
191.501144 153.892090 189.942764 
191.327881 153.911804 190.435730 
191.267334 153.905792 190.962784 
191.336853 153.855042 191.448288 
191.482437 153.527252 192.846832 
191.516663 153.530029 192.914368 
191.037582 153.814957 193.424316 
191.360260 153.755722 194.336563 
191.344803 153.707214 194.945328 
191.324890 153.615692 195.554382 
191.518753 153.269241 196.953262 
191.432434 153.169083 197.428772 
191.409378 152.987808 198.172928 
191.672897 152.621613 199.579071 
191.571518 152.571075 200.040710 
191.408173 152.494125 200.690262 
191.581573 151.981613 202.320679 
191.493820 151.744171 202.897675 
191.700439 150.379272 205.307251 
140.980133 158.154312 222.864334 
191.477402 149.847641 207.600540 
191.413681 149.945267 207.978958 
191.509521 150.129074 208.713165 
191.550842 150.157883 209.396866 
191.536835 150.100647 210.353561 
191.728043 148.730988 213.310059 
147.027695 153.024109 109.681236 
174.023666 148.070389 131.544220 
174.191895 147.902405 131.145737 
191.315521 141.946396 90.737297 
191.358917 140.573303 91.386292 
191.449326 139.431534 92.389618 
191.712219 139.354904 96.845421 
193.941772 140.909988 101.197617 
191.393402 140.392792 101.716553 
191.123779 141.528488 108.673073 
191.248032 141.717697 111.392258 
191.182053 141.637711 112.355637 
191.477570 141.315216 114.618217 
191.529831 141.298279 115.834816 
191.307999 141.840759 119.486816 
191.229172 141.981934 120.376183 
191.342056 142.583694 124.087227 
191.376373 142.823486 125.210991 
191.177490 143.735779 128.708038 
191.262161 144.711777 132.271149 
191.140961 144.993088 133.199860 
191.303192 145.469269 134.981125 
191.213470 145.653976 135.578766 
191.378342 146.624390 139.619659 
191.048630 146.811005 140.173492 
190.593414 147.568100 142.963409 
190.685516 147.782242 143.804230 
191.015900 148.110092 144.886414 
190.858841 148.402618 145.518616 
191.056915 149.408188 148.299988 
190.899734 149.634857 148.905014 
191.157486 149.784363 149.476501 
190.909317 150.991638 152.560699 
190.808441 151.182159 153.022003 
190.734436 151.737946 154.529816 
190.766708 151.907684 155.072876 
180.621841 144.316544 121.941170 
190.777328 152.379364 156.987671 
190.734955 152.500778 157.510529 
190.741211 152.775696 158.772217 
190.709000 152.939072 159.531616 
190.771790 153.057602 160.147980 
190.771103 153.208130 160.882187 
190.543167 153.443054 162.096283 
190.608200 153.462494 162.622452 
190.673981 153.461441 163.157700 
190.727615 153.460052 163.687927 
190.892899 153.448120 164.288818 
190.862961 153.478027 164.557968 
190.575729 153.845551 165.865753 
190.643448 153.936508 166.453659 
190.666153 154.022125 167.009460 
190.787201 154.051224 167.476746 
190.643158 154.161911 168.189285 
190.705643 154.184631 168.716797 
190.779709 154.194809 169.208832 
190.518417 154.315567 169.978958 
190.662979 154.295715 170.444504 
190.626358 154.332077 171.018707 
190.593262 154.362869 171.588104 
190.587509 154.379852 172.116867 
190.664658 154.370193 172.616562 
190.704559 154.369278 173.104416 
190.564148 154.417984 173.713287 
190.596100 154.415955 174.209564 
190.644775 154.408783 174.732330 
190.645035 154.412674 175.247482 
190.666138 154.410110 175.765976 
190.624390 154.422577 176.276855 
190.683670 154.408813 176.776443 
190.509415 154.449844 177.335358 
190.619781 154.420380 177.821442 
190.674835 154.401413 178.375717 
190.739273 154.378891 178.933426 
190.803299 154.358612 179.476807 
190.884964 154.338089 179.868134 
190.441025 154.463898 180.489639 
190.533966 154.445450 180.889709 
190.639572 154.425537 181.443359 
190.618729 154.433716 181.966492 
190.642365 154.423187 182.482193 
190.630447 154.416992 182.894775 
190.797668 154.349106 183.752563 
190.810440 154.341690 184.060196 
190.617050 154.379761 184.636108 
190.738861 154.352142 185.321564 
190.737122 154.355804 185.770157 
190.686676 154.378159 186.284149 
190.660263 154.393799 186.816208 
190.618195 154.394348 187.335144 
190.624130 154.354904 187.838882 
190.713699 154.203598 188.723450 
190.723755 154.121735 189.241653 
190.551300 154.112991 189.702560 
190.616180 154.054520 190.265289 
190.694809 153.969437 191.152451 
190.702240 153.901199 191.696548 
190.572235 153.883926 192.255859 
190.521820 153.929031 192.841766 
190.563614 153.953842 193.288330 
190.760208 153.881607 194.347824 
190.696671 153.833572 194.947906 
190.696503 153.731033 195.605438 
190.580734 153.638641 196.233368 
190.524170 153.570541 196.646790 
190.870789 153.072784 198.385300 
190.740845 152.985321 198.969543 
190.573441 152.923538 199.549286 
190.578735 152.826096 200.094620 
190.639389 152.570877 201.258682 
190.572601 152.383133 201.960159 
190.850464 151.216385 204.099121 
191.019958 150.328430 206.033157 
191.323196 149.874817 207.659851 
191.243256 149.994202 207.992172 
191.020432 150.239319 208.688766 
190.921783 150.203232 209.291458 
206.747513 145.129776 213.656815 
190.987305 148.899185 213.150085 
174.381607 145.195129 117.619934 
193.087524 140.917969 109.909088 
178.735626 144.512268 120.102150 
190.457153 141.997116 90.734589 
190.517563 140.551346 91.341629 
190.663330 139.509720 92.248520 
190.513351 139.196701 94.878929 
190.411789 140.310577 101.800362 
190.550705 140.500336 103.184906 
190.359009 141.628922 108.403488 
190.601379 141.772934 111.106606 
190.293686 141.659683 112.070282 
190.446487 141.455200 113.289963 
190.280914 141.809952 118.048721 
190.413712 141.924667 119.207970 
190.481079 142.030563 120.172951 
190.476349 142.521042 123.259338 
190.410355 143.299164 126.483299 
190.373123 143.874924 128.685562 
190.141846 144.089172 129.346893 
190.374023 144.988937 132.738586 
190.397476 145.277771 133.728561 
190.313843 146.260345 137.137039 
190.178085 146.548569 138.345306 
189.992783 146.729752 139.016998 
190.147781 147.758728 143.039795 
190.281250 148.068298 144.160629 
190.239990 148.287674 144.774185 
190.402084 148.450119 145.380890 
190.233353 149.342194 147.771698 
190.035339 150.025299 149.569061 
190.300720 150.189056 150.236557 
190.292450 150.367020 150.742950 
190.079437 151.386017 153.166183 
190.068558 151.790771 154.347260 
190.106705 151.956467 154.894623 
190.108688 152.368729 156.413849 
190.083954 152.502136 156.973038 
190.208221 152.592712 157.510162 
190.070114 152.884995 158.779297 
190.033859 153.078140 159.640106 
190.124191 153.174911 160.154984 
190.024078 153.459930 161.409988 
189.998077 153.546936 161.966614 
190.032867 153.594528 162.531281 
190.074417 153.618057 163.063400 
190.153290 153.636749 163.723099 
189.996536 153.783539 164.552261 
189.861649 153.984039 165.472290 
189.964371 154.031860 165.911270 
190.027481 154.102509 166.428848 
190.076721 154.180176 167.011002 
189.867035 154.332520 167.795959 
190.059433 154.324646 168.234726 
189.980347 154.395752 168.846680 
189.981140 154.438446 169.431488 
190.001419 154.467896 169.964188 
190.057205 154.477905 170.432831 
189.967331 154.533798 171.072906 
190.002914 154.538864 171.576630 
190.011673 154.546707 172.111649 
190.057632 154.541519 172.612778 
189.948532 154.580429 173.293472 
189.973465 154.577972 173.720108 
189.998505 154.575577 174.198273 
190.012268 154.574936 174.715698 
190.052902 154.564423 175.250092 
190.060944 154.561279 175.770248 
190.060944 154.560486 176.264938 
189.966949 154.581619 176.852951 
189.984253 154.575943 177.324127 
189.999481 154.570038 177.798553 
190.010788 154.564133 178.329117 
189.932678 154.581497 178.857422 
189.908218 154.589569 179.319427 
190.100876 154.544952 179.868027 
189.950272 154.594650 180.427322 
189.913834 154.610825 180.847229 
190.061951 154.578156 181.495193 
190.010666 154.590042 181.952469 
190.006470 154.581390 182.476822 
190.048065 154.554001 183.054626 
189.992310 154.551041 183.535461 
190.043930 154.523590 184.083405 
190.008392 154.524750 184.602051 
189.977783 154.531525 185.074814 
190.062927 154.516876 185.703445 
189.900131 154.569458 186.213135 
190.001251 154.552826 186.770370 
190.049850 154.524551 187.417969 
190.014786 154.489410 187.916733 
190.067123 154.378204 188.602722 
190.116852 154.274551 189.236801 
190.028931 154.235657 189.737762 
190.004959 154.182098 190.253098 
190.050369 154.092468 190.931335 
190.032715 154.029465 191.797882 
190.056656 154.028641 192.209488 
189.997940 154.080521 192.780029 
189.987518 154.106110 193.334549 
189.921494 154.114639 193.875488 
190.145370 153.940979 195.077164 
190.069901 153.883316 195.588028 
190.033920 153.761810 196.318497 
190.068741 153.595169 197.094284 
189.913010 153.552750 197.472778 
190.133987 153.159271 198.933273 
190.026413 153.082626 199.465439 
190.111252 152.800507 200.843384 
190.063004 152.709152 201.261383 
190.002686 152.591904 201.683472 
190.179840 151.265488 204.326294 
189.983353 151.124481 204.834335 
190.128815 150.696213 206.392303 
189.860275 150.716171 207.049789 
189.981705 150.588058 207.570572 
190.044815 147.897903 212.166229 
190.127747 148.196777 212.631317 
190.252548 149.120102 212.954239 
166.844040 150.408905 133.708466 
174.618683 145.391159 118.447594 
164.606125 150.525848 131.689026 
189.601547 142.139801 90.956352 
189.770294 140.673904 91.452301 
189.537506 139.957489 93.695824 
189.710831 139.357803 94.803680 
189.590622 139.861420 99.117989 
189.579330 140.489853 102.594612 
189.783813 141.726990 109.630653 
189.591324 141.701538 110.481735 
189.544998 141.676086 111.473503 
189.786514 141.482620 113.451393 
189.622162 141.907013 117.812988 
189.577621 142.020020 119.030823 
189.807175 142.093552 120.071007 
189.502838 143.132095 125.127823 
189.420471 143.880844 128.036346 
189.602402 144.008896 128.690247 
189.825333 144.240463 129.738403 
189.645966 144.997574 132.353958 
189.034592 146.460861 136.787598 
189.427856 146.534088 137.654160 
189.519287 146.673828 138.452866 
189.432541 146.806396 138.989807 
189.459290 147.897827 142.784180 
189.408157 148.113739 143.457047 
189.565475 148.480072 144.807114 
189.418457 149.207977 146.921539 
189.502975 149.501968 147.803406 
189.327103 150.215042 149.585541 
189.710144 150.367966 150.294998 
189.569077 150.871399 151.571106 
189.434494 151.723618 153.850891 
189.362686 151.876434 154.303848 
189.505692 152.035431 154.871964 
189.429626 152.443604 156.173309 
189.357010 152.721329 157.207657 
189.517090 152.793503 157.772522 
189.439728 152.943146 158.463272 
189.366623 153.229965 159.729706 
189.447998 153.333145 160.270493 
189.407135 153.496445 160.967911 
189.359070 153.695679 162.050308 
189.378204 153.755524 162.572876 
189.472565 153.782852 163.101959 
189.259018 153.955795 164.155457 
189.362000 153.986359 164.640015 
189.394455 154.093292 165.411835 
189.370255 154.179871 165.922180 
189.343445 154.303802 166.632904 
189.349854 154.400696 167.299835 
189.360443 154.457031 167.770508 
189.329575 154.522827 168.329010 
189.391449 154.554337 168.849564 
189.369995 154.607666 169.408875 
189.423676 154.632080 169.923096 
189.343948 154.694687 170.553894 
189.224991 154.753632 171.116562 
189.433716 154.706573 171.635468 
189.451599 154.708618 172.123962 
189.477066 154.704926 172.585648 
189.385040 154.734070 173.182007 
189.398270 154.733383 173.696609 
189.438828 154.724731 174.148895 
189.289139 154.763916 174.808655 
189.253723 154.768387 175.275574 
189.309692 154.748596 175.698792 
189.400528 154.720306 176.286194 
189.375214 154.723099 176.794922 
189.393890 154.716583 177.330551 
189.438507 154.704483 177.830200 
189.351013 154.725098 178.355453 
189.370132 154.722244 178.857895 
189.340881 154.735611 179.352921 
189.411606 154.727020 179.886002 
189.374939 154.745682 180.363525 
189.299866 154.772186 180.851746 
189.442993 154.737457 181.476440 
189.415512 154.740005 181.957977 
189.382416 154.737061 182.471207 
189.368668 154.725708 182.980499 
189.422623 154.696075 183.521057 
189.227997 154.734650 183.993286 
189.353287 154.694183 184.549896 
189.465500 154.662781 185.277176 
189.471558 154.665985 185.669571 
189.367340 154.704514 186.185150 
189.343674 154.719376 186.703400 
189.299820 154.725525 187.175125 
189.352570 154.673508 187.824829 
189.403030 154.579987 188.505341 
189.481720 154.458481 189.198685 
189.441742 154.390564 189.760132 
189.380753 154.329651 190.290375 
189.542191 154.155655 191.326874 
189.632248 154.121155 191.693634 
189.376099 154.203033 192.164444 
189.339478 154.233444 192.715591 
189.356918 154.241486 193.304291 
189.353760 154.232422 193.930481 
189.265091 154.215149 194.503998 
189.343460 154.104691 195.345932 
189.531235 153.846619 196.576370 
189.450150 153.762085 197.097351 
189.551483 153.508621 198.085052 
189.241486 153.542786 198.273087 
189.532043 153.113022 199.967682 
189.361847 153.063980 200.425140 
189.332291 152.937851 200.990921 
189.409897 152.369385 202.512772 
189.464249 151.451309 204.332657 
189.461395 151.270782 204.866638 
189.558151 150.938583 206.313522 
189.424698 150.850281 206.887177 
189.416367 149.502075 209.466599 
189.751907 147.887802 212.151840 
189.796844 148.169861 212.497955 
189.521423 149.393204 212.722961 
162.675476 152.315247 137.393768 
163.160263 152.206940 137.553162 
165.199020 152.505005 140.383392 
188.750198 142.360031 91.321884 
188.631775 141.342377 92.895607 
188.844147 140.300476 93.936569 
189.145020 139.487747 94.880493 
188.801620 139.941498 98.839386 
188.806854 140.756897 103.389221 
183.390671 140.999710 98.556938 
188.950241 141.569489 110.357513 
188.737305 141.634811 112.161354 
188.643341 141.904877 115.420486 
188.665115 142.016586 116.931992 
188.672119 142.188858 119.527206 
188.849777 142.288910 120.800041 
188.752335 143.012512 124.041641 
188.719315 143.891022 127.580803 
188.530655 144.418457 129.707352 
188.809662 144.617615 130.596451 
188.790039 146.442612 136.438034 
188.769318 146.488373 136.699615 
188.721161 146.623596 137.543091 
188.762009 146.770767 138.421860 
188.774078 146.877228 138.933670 
188.711243 148.060562 142.704529 
188.790588 148.260193 143.402054 
188.720718 149.148270 146.224411 
188.705109 149.303253 146.717758 
188.887451 149.448349 147.291885 
188.460876 150.945892 150.752441 
188.581161 151.047806 151.244522 
188.827271 151.186234 151.965668 
188.659424 151.347382 152.411682 
188.749802 152.038071 154.563309 
188.780411 152.211945 155.081573 
188.536148 152.893250 156.995346 
188.645325 152.953659 157.416504 
188.790237 153.016724 157.995087 
188.837646 153.113205 158.608719 
188.704453 153.384262 159.723953 
188.813141 153.472717 160.253189 
188.702347 153.740524 161.373367 
188.741150 153.818146 161.876907 
188.726456 153.927368 162.634415 
188.876419 153.938797 163.059067 
188.659378 154.110916 164.098099 
188.753021 154.136597 164.639633 
188.707382 154.206024 165.161392 
188.680450 154.285202 165.674988 
188.736954 154.415115 166.482330 
188.759628 154.491470 166.982742 
188.757980 154.582809 167.632645 
188.680023 154.699692 168.492508 
188.725327 154.730804 168.912460 
188.755859 154.769836 169.410400 
188.857544 154.782257 169.874115 
188.610168 154.905487 170.754517 
188.672653 154.906128 171.156372 
188.612762 154.933105 171.665039 
188.741730 154.904236 172.168259 
188.769669 154.898224 172.702164 
188.841080 154.880417 173.217667 
188.896713 154.866684 173.641724 
188.678833 154.923477 174.302322 
188.678879 154.919708 174.798141 
188.723755 154.899948 175.340958 
188.754913 154.883270 175.817413 
188.809647 154.862991 176.272339 
188.678406 154.889008 176.878662 
188.674225 154.888412 177.313263 
188.759476 154.867950 177.842239 
188.765335 154.868332 178.363098 
188.766144 154.872437 178.828140 
188.717926 154.893082 179.361313 
188.780853 154.888367 179.881729 
188.726089 154.912415 180.392456 
188.737289 154.916168 180.893600 
188.710693 154.922668 181.392044 
188.691284 154.920822 181.898697 
188.698563 154.908432 182.360016 
188.751144 154.878693 182.969910 
188.743454 154.867142 183.494339 
188.722916 154.862244 184.005402 
188.692032 154.863800 184.489899 
188.780441 154.838501 185.125275 
188.752579 154.849991 185.629120 
188.705994 154.871643 186.139603 
188.723267 154.876343 186.649780 
188.737396 154.873322 187.287476 
188.708740 154.863495 187.802277 
188.523392 154.891388 188.219498 
188.764175 154.716705 189.021210 
188.741684 154.633087 189.600693 
188.719376 154.543350 190.170563 
188.835754 154.384644 190.970322 
188.643005 154.389542 191.427551 
188.792969 154.322357 192.164413 
188.722809 154.331284 192.698349 
188.734512 154.346359 193.414047 
188.735336 154.349472 194.014999 
188.730026 154.324142 194.622971 
188.623367 154.304718 195.156708 
188.568771 154.248413 195.684631 
188.670441 154.049988 196.696793 
188.625992 153.963440 197.157227 
188.750763 153.576263 198.636002 
188.688904 153.455765 199.239334 
188.759018 153.153534 200.659302 
188.733276 153.046631 201.124405 
188.540161 152.958023 201.629028 
188.796707 151.514282 204.604065 
188.790512 151.362076 205.119247 
188.448532 151.341568 205.452164 
188.871002 149.634308 209.060974 
188.822144 149.556305 209.471146 
188.519318 149.597198 210.027756 
188.974716 148.951385 212.133499 
188.792084 149.701416 212.471817 
168.227325 146.688705 117.998901 
168.954529 146.584030 117.703972 
168.415466 146.551392 117.305717 
187.909653 142.512955 91.547119 
187.907120 141.627502 93.110229 
187.746933 140.778427 95.105858 
187.773071 140.218414 97.237579 
188.011444 140.241882 99.244537 
187.986847 141.001450 103.472771 
187.923599 141.118515 104.620247 
187.888474 141.201340 107.593025 
187.885071 141.807495 112.674461 
187.789520 142.101959 115.532219 
188.017532 142.250336 118.849892 
188.097626 142.309128 119.706238 
187.974609 142.491776 120.830994 
187.970078 143.208038 124.128166 
187.847122 144.027390 127.577576 
187.807617 144.514648 129.707260 
188.006012 144.711243 130.526932 
187.956802 145.546570 133.148071 
188.328018 146.576797 136.923447 
188.172043 146.689316 137.500748 
187.937500 146.856125 138.260895 
188.225082 146.945435 138.904373 
188.005432 148.241562 142.734802 
188.087738 148.432816 143.396225 
188.039291 149.152374 145.702759 
187.966156 149.660706 147.373672 
188.030746 149.949326 148.221420 
188.141830 151.039276 150.839172 
187.983231 151.189575 151.235748 
188.070084 151.388428 152.113907 
188.179260 151.514771 152.686188 
188.086594 152.020157 154.185959 
188.048889 152.541550 155.570084 
188.018646 152.991318 156.894409 
188.078964 153.097031 157.426041 
188.152771 153.184967 157.976379 
187.988327 153.474335 159.212341 
188.094116 153.555054 159.745438 
188.156235 153.660904 160.325851 
188.020844 153.935959 161.453568 
188.116547 153.998306 161.972061 
188.120163 154.098572 162.690002 
187.939423 154.270401 163.741318 
188.026047 154.275009 164.114868 
188.104034 154.290802 164.640045 
188.161133 154.326706 165.172195 
188.191391 154.358627 165.477234 
188.010223 154.613739 166.678284 
188.108521 154.666855 167.159225 
188.117569 154.745560 167.746201 
188.097595 154.819351 168.321533 
188.150864 154.860977 168.820557 
188.012344 154.975464 169.675415 
188.087814 154.991852 170.101212 
188.075500 155.029099 170.618896 
188.081207 155.054077 171.228317 
188.066315 155.069687 171.698074 
188.084198 155.070435 172.201248 
188.025986 155.087830 172.742355 
188.053009 155.083023 173.245850 
188.089615 155.074585 173.765289 
188.035828 155.086411 174.305542 
188.077469 155.071274 174.767761 
188.117325 155.051834 175.295975 
188.122437 155.040024 175.792450 
188.176239 155.017746 176.280014 
188.118866 155.025726 176.859146 
188.105606 155.026886 177.330017 
178.935516 157.104004 178.338074 
178.943680 157.096954 177.829056 
178.927887 157.085449 176.793777 
178.957184 157.071579 176.339081 
188.243546 155.021240 179.845764 
188.054062 155.078629 180.357864 
188.122192 155.068939 180.887985 
188.107330 155.072678 181.394775 
188.100601 155.067627 181.906448 
188.146729 155.040787 182.524719 
188.145859 155.028046 182.975052 
188.077408 155.032196 183.473663 
188.119415 155.011505 184.000793 
188.102554 155.009766 184.505600 
188.105484 155.007263 185.055374 
188.099136 155.012665 185.576950 
188.168381 155.007675 186.235962 
188.121582 155.029099 186.680344 
188.140305 155.032898 187.244293 
188.114578 155.035004 187.741653 
188.004730 155.047302 188.216873 
188.070251 154.973450 188.832581 
188.040894 154.900482 189.411942 
188.175522 154.689682 190.331177 
188.182465 154.590012 190.866837 
188.065338 154.528320 191.380554 
188.096619 154.419891 191.908035 
188.211609 154.355118 192.366791 
188.013153 154.402084 193.222885 
188.116318 154.449539 193.996353 
188.013763 154.470856 194.514175 
188.046448 154.446518 194.897583 
188.072601 154.316605 195.982071 
188.082733 154.183472 196.726105 
188.135605 153.901321 197.909271 
188.096909 153.705978 198.759567 
188.099121 153.593109 199.255783 
188.157303 153.318115 200.533493 
188.061966 153.219818 201.059021 
187.969482 153.126831 201.496628 
188.246735 151.723038 204.337494 
188.030182 151.528915 205.062607 
188.254837 151.378082 205.424072 
188.060928 150.877060 206.992065 
188.292282 149.849182 209.508667 
188.104599 149.917450 210.170013 
188.695801 149.172867 212.074738 
188.063721 150.020248 212.223022 
167.603668 146.868805 118.013222 
166.972122 147.027756 117.797310 
169.209381 146.435791 117.238747 
187.096802 142.611450 91.686707 
186.837769 141.798965 94.139801 
186.998199 141.052917 95.251938 
186.943848 140.470398 97.289742 
186.234100 141.925491 104.585556 
186.651474 141.678207 105.457314 
187.094604 141.406494 106.704681 
186.933838 141.819550 111.669731 
187.167053 142.108414 114.375237 
186.984665 142.214020 115.240356 
187.222946 142.310043 117.487595 
187.045013 142.456619 118.394920 
186.953369 143.327377 123.411583 
187.184280 143.726456 125.700867 
186.946884 143.884628 126.279991 
187.345474 144.665283 130.029160 
187.138245 144.877853 130.673752 
187.158981 146.095520 134.469437 
187.150513 146.502945 135.922073 
186.942337 146.648880 136.389984 
187.376587 146.957520 138.250275 
187.134720 148.117691 141.664413 
187.214661 148.319962 142.356033 
187.316818 149.216034 145.332184 
187.309525 149.429092 146.114578 
187.214569 149.660477 146.860641 
187.187653 149.823135 147.370575 
187.438812 151.053940 150.478348 
187.327591 151.323318 151.204773 
187.443756 151.519669 152.033386 
187.482971 151.748154 152.948914 
187.420380 152.244553 154.374878 
187.398926 152.377319 154.732559 
187.400665 153.104141 156.818863 
187.446777 153.212585 157.300797 
187.421234 153.493881 158.589233 
187.386887 153.610916 159.104858 
187.537613 153.692062 159.654877 
187.457535 153.918930 160.583450 
187.362167 154.145111 161.537506 
187.543900 154.167160 161.994965 
187.561584 154.234253 162.510223 
187.451965 154.388504 163.671829 
187.441376 154.418213 164.115921 
187.505859 154.438843 164.697235 
187.664429 154.434647 165.061890 
187.396271 154.671173 166.132706 
187.402100 154.764267 166.712067 
187.499344 154.810883 167.174255 
187.481201 154.901917 167.813553 
187.514633 154.953430 168.307098 
187.491837 155.032455 168.996658 
187.443771 155.083984 169.430466 
187.487045 155.121719 170.018631 
187.488663 155.158218 170.591202 
187.482788 155.181824 171.074738 
187.476868 155.201660 171.712875 
187.465027 155.214249 172.261551 
187.471375 155.218796 172.739212 
187.487961 155.218842 173.234756 
187.491989 155.220139 173.745697 
187.450424 155.231094 174.300034 
187.487244 155.218826 174.765106 
187.506592 155.205231 175.301086 
187.533401 155.188095 175.813019 
187.603195 155.160950 176.321426 
187.556686 155.167236 176.747238 
178.880890 157.071777 175.771378 
179.561691 156.978882 178.857788 
178.925064 157.093964 177.316330 
179.523636 156.982254 178.325241 
179.537292 156.972153 177.336975 
179.544220 156.968613 176.311752 
180.161026 156.857300 179.338791 
180.169830 156.851227 178.840210 
187.517090 155.219681 181.394012 
187.494629 155.220795 181.901489 
187.476578 155.215042 182.395523 
187.572235 155.173096 182.980850 
187.483521 155.181976 183.461334 
187.539429 155.154388 184.064301 
187.534439 155.149246 184.534225 
187.455933 155.166611 185.030060 
187.501328 155.159073 185.581039 
187.410049 155.189209 186.034378 
187.533722 155.175262 186.708923 
187.505981 155.193329 187.202728 
187.472473 155.205643 187.720917 
187.417923 155.210541 188.156647 
187.504166 155.127045 188.958298 
187.455078 155.079910 189.445999 
187.516907 154.946442 190.097443 
187.426102 154.877884 190.558029 
187.466797 154.663391 191.391266 
187.504929 154.232651 192.609680 
187.511887 154.238007 192.633377 
187.383102 154.490692 193.201385 
187.462051 154.558151 193.928619 
187.474548 154.565598 194.433670 
187.476852 154.497269 195.544388 
187.531754 154.399246 196.207687 
187.474213 154.317535 196.753891 
187.319702 154.259674 197.227631 
187.588425 153.795807 198.920410 
187.475662 153.719894 199.376678 
187.535583 153.455948 200.507904 
187.438507 153.356186 201.022263 
187.362564 153.241592 201.525452 
187.314011 152.677917 203.021744 
187.299622 151.503784 205.490906 
187.491882 151.349960 205.803818 
187.406067 150.739349 207.737717 
187.280807 150.734375 208.427002 
186.984970 151.009583 209.075134 
186.887436 151.157593 209.480774 
187.337097 150.326584 211.997314 
176.535339 142.051376 96.932312 
162.038620 148.124985 118.399734 
186.344009 142.774948 92.045456 
186.171082 142.009140 93.995537 
186.130127 141.062592 95.131218 
185.734116 140.518631 96.098953 
185.927933 142.080246 104.279480 
186.071747 141.882401 105.510391 
186.277176 141.671982 106.606216 
186.116928 141.730469 109.722862 
186.102264 141.996414 112.091522 
186.140518 142.350708 115.342712 
186.268967 142.456635 116.584740 
186.076004 143.320236 121.413872 
186.010071 143.457687 122.266907 
186.226715 143.620407 124.117508 
186.291840 144.167831 127.298576 
186.077866 144.371887 128.124542 
186.379715 145.002899 130.665009 
186.513870 146.358444 135.051315 
186.392227 146.602844 135.848953 
186.674332 146.751480 136.624619 
186.469788 148.037186 140.818909 
186.404007 148.232727 141.368301 
186.610260 148.415390 142.138657 
186.529480 148.717255 143.058395 
186.690689 149.560379 146.126297 
186.547928 149.747360 146.673630 
186.716934 149.887299 147.239365 
186.697952 150.964233 149.824951 
186.605408 151.581726 151.476669 
186.696304 151.805420 152.329468 
186.601181 152.348648 153.990295 
186.684372 152.567368 154.731323 
186.765106 152.807693 155.502411 
186.779556 153.210617 156.793671 
186.773972 153.355927 157.376221 
186.733780 153.472061 157.855942 
186.802826 153.841843 159.468262 
186.760742 153.973221 159.925613 
186.848953 154.100433 160.576767 
186.743500 154.358231 161.695236 
186.720444 154.456726 162.349106 
186.834488 154.482437 162.881317 
186.797424 154.529877 163.385727 
186.821838 154.565109 164.140091 
186.914017 154.581436 164.646500 
186.829559 154.693939 165.389709 
186.795959 154.826294 166.178528 
186.822189 154.895248 166.659912 
186.847794 154.972839 167.231750 
186.901642 155.025009 167.722397 
186.811981 155.133148 168.478333 
186.862839 155.170685 168.964569 
186.906235 155.204147 169.457321 
186.848969 155.261826 170.098587 
186.880096 155.284409 170.599487 
186.868683 155.310638 171.151138 
186.849503 155.332458 171.705185 
186.860291 155.342896 172.209229 
186.877838 155.350235 172.735703 
186.886765 155.355789 173.220535 
186.854736 155.371292 173.827667 
186.864685 155.373779 174.310806 
186.912277 155.361404 174.788879 
186.857651 155.369629 175.305161 
186.879593 155.355865 175.809036 
186.892105 155.343597 176.314087 
180.157852 156.848877 176.313950 
180.167282 156.852112 175.815002 
186.317902 155.460159 177.913345 
182.829636 156.181610 178.443161 
179.537659 156.975098 177.832886 
179.549591 156.967926 176.838501 
179.553574 156.964142 175.822693 
180.773300 156.725037 179.833786 
180.763519 156.722137 179.352631 
186.870880 155.378784 181.369003 
186.782608 155.401657 181.837799 
186.880707 155.369034 182.420746 
186.935425 155.339752 182.960190 
186.878998 155.338791 183.461258 
186.857925 155.330231 183.960922 
186.901123 155.308472 184.508926 
186.859482 155.314651 185.001785 
186.878311 155.312225 185.562546 
186.874344 155.322021 186.087234 
186.825211 155.345459 186.575821 
186.898651 155.342072 187.201248 
186.866104 155.354111 187.707993 
186.846237 155.348541 188.208725 
186.872696 155.302902 188.864822 
186.837158 155.258652 189.375015 
186.793961 155.206863 189.824020 
186.989761 154.914856 190.977631 
186.824921 154.889694 191.330566 
186.628052 154.869965 191.803574 
186.731613 154.722427 192.504669 
186.809219 154.696716 193.572800 
186.860001 154.695175 193.990463 
186.884476 154.683685 194.469666 
186.786133 154.667526 195.143616 
186.751678 154.618256 195.753220 
186.795914 154.495865 196.600754 
186.788559 154.392334 197.203094 
186.830933 154.128311 198.376999 
186.929626 153.805252 199.599945 
186.792587 153.651810 200.325592 
186.780594 153.502609 200.916107 
186.824844 153.383270 201.346161 
186.701538 153.053238 202.504440 
186.913284 151.550934 205.675339 
187.025879 150.965805 207.295013 
186.933609 150.969040 207.528152 
186.791351 151.039261 208.265411 
186.565094 151.222076 208.970840 
186.728088 151.213943 209.494049 
186.614685 150.603455 211.809525 
185.671814 142.801178 92.316292 
185.646393 142.053665 93.829926 
185.526047 140.904373 94.835449 
185.099716 140.313858 95.804779 
185.190781 142.256332 104.551201 
185.298599 142.104675 105.565079 
185.456482 141.899979 106.596138 
185.331451 141.964539 110.368813 
185.327942 142.104263 111.891029 
185.271271 142.557343 115.633339 
185.179672 143.476807 120.437561 
185.374298 143.515793 121.208008 
185.399292 143.607132 122.163979 
185.700012 144.113541 126.571854 
185.577820 144.213058 126.969910 
185.461014 144.405212 127.759743 
185.679672 145.234879 130.929657 
185.624390 146.143631 133.817459 
185.605789 146.809860 136.053787 
185.714462 147.261429 137.717575 
185.781830 147.958206 139.961349 
185.689850 148.550323 141.701401 
185.606003 149.127625 143.594940 
185.895508 149.240128 144.274734 
185.829590 149.524963 145.271545 
185.954376 149.871979 146.626068 
185.969666 150.604218 148.515869 
186.012711 151.194794 149.911316 
185.985779 151.835159 151.748749 
186.015594 151.981781 152.278000 
186.071976 152.458023 153.867538 
186.027649 152.657349 154.466644 
186.078339 153.114655 155.974808 
186.070511 153.262085 156.483383 
186.037033 153.571823 157.700455 
186.195831 153.671539 158.253555 
186.141037 153.792953 158.678268 
186.114807 154.256760 160.296249 
186.185135 154.351425 160.804108 
186.156479 154.506790 161.535538 
186.167389 154.597488 162.249496 
186.225494 154.627075 162.797668 
186.170395 154.678909 163.586411 
186.205643 154.698868 164.109985 
186.263733 154.725876 164.588547 
186.190109 154.879547 165.615433 
186.190292 154.940445 166.010361 
186.187073 155.055450 166.747574 
186.242294 155.114838 167.245468 
186.210449 155.206635 167.906647 
186.219635 155.265198 168.461090 
186.261261 155.302200 168.963593 
186.257538 155.346970 169.527695 
186.241974 155.385315 170.091064 
186.277908 155.403351 170.589203 
186.230484 155.439392 171.224319 
186.258438 155.451401 171.721237 
186.252548 155.468246 172.209320 
186.269058 155.480286 172.722534 
186.279694 155.490845 173.203857 
186.260498 155.509827 173.811523 
186.248047 155.521652 174.286896 
186.279068 155.517914 174.788254 
186.162430 155.544922 175.340363 
186.225723 155.522797 175.811142 
180.765244 156.719620 176.321060 
180.760834 156.730682 175.830734 
184.742142 155.808838 177.558731 
182.886414 156.282135 182.453766 
182.338638 156.309250 178.111206 
181.078918 156.629105 177.483170 
181.357727 156.571381 179.145416 
186.451080 155.436661 177.465363 
181.386642 156.584351 180.356110 
181.333725 156.589050 179.830719 
186.232819 155.528885 181.358505 
186.241974 155.534836 181.884033 
186.247650 155.531906 182.367264 
186.174332 155.542282 182.803955 
186.230576 155.511459 183.395813 
186.267715 155.484344 183.958313 
186.249451 155.476227 184.470825 
186.327988 155.447571 185.177505 
186.318527 155.451309 185.588516 
186.310440 155.460602 186.068634 
186.224777 155.491135 186.583450 
186.315399 155.478439 187.212326 
186.276825 155.487427 187.704330 
186.238281 155.483429 188.190323 
186.293289 155.427643 188.925430 
186.263397 155.388947 189.418274 
186.243896 155.325272 189.953644 
186.141983 155.286163 190.394196 
186.228363 155.123688 191.276672 
186.172104 155.074615 191.779694 
186.179077 154.987976 192.460129 
186.448242 154.809799 193.604599 
186.285568 154.847137 194.004303 
186.221725 154.828323 194.601990 
186.204269 154.788712 195.175308 
186.241959 154.734756 195.649490 
186.184235 154.595535 196.836044 
186.190674 154.503738 197.366409 
186.016281 154.446915 197.865189 
186.046402 154.271729 198.642303 
186.188034 153.667130 200.684296 
186.123154 153.541580 201.172211 
186.087463 153.318283 201.964966 
186.124634 153.080704 202.762817 
139.351669 158.335693 223.011261 
185.983597 152.069443 205.525589 
185.825027 151.915314 206.310471 
185.751373 151.857147 206.678513 
186.071701 151.369507 209.550278 
186.006561 151.294678 210.022079 
185.900146 150.841797 211.667084 
185.091690 142.509552 92.211182 
184.085922 141.286636 91.146660 
184.050858 139.524612 91.500473 
184.326828 140.466324 97.149910 
184.402771 142.417709 104.564087 
184.471802 142.276154 105.671318 
184.580139 142.032166 107.127228 
184.491394 142.113724 109.809494 
184.446640 142.358536 112.600426 
184.464432 142.959625 116.977196 
184.646576 143.554932 120.187912 
184.456360 143.687729 120.928841 
184.700317 143.734604 121.859383 
184.717682 143.932617 124.305389 
184.592331 144.320084 126.500992 
184.582031 145.482925 130.751984 
184.878479 145.835922 132.255890 
184.746857 146.048004 132.894043 
184.717987 147.367859 137.269775 
184.938507 147.578354 138.094070 
184.975113 148.139801 139.792847 
184.935242 148.380096 140.468994 
185.122559 149.269928 143.589401 
185.133926 149.434952 144.228775 
185.379303 149.574936 145.035110 
185.177200 150.350937 147.385315 
185.235275 151.415024 149.904160 
185.259369 151.592361 150.424469 
185.309967 151.884552 151.346466 
185.369568 152.324051 152.873901 
185.325714 152.511765 153.417587 
185.439636 152.631531 153.877487 
185.417175 153.199417 155.762756 
185.487915 153.326859 156.294296 
185.483047 153.670013 157.633774 
185.508377 153.824417 158.203552 
185.466843 154.241241 159.508377 
185.499893 154.364471 160.029770 
185.589294 154.442230 160.453171 
185.410629 154.748398 161.847076 
185.527451 154.762299 162.335587 
185.569717 154.781418 162.886887 
185.570114 154.809540 163.652496 
185.582794 154.834732 164.145309 
185.584412 154.880417 164.660950 
185.574692 154.994995 165.490189 
185.608643 155.060165 165.963013 
185.604172 155.197647 166.832504 
185.577728 155.271606 167.299149 
185.621475 155.326309 167.801559 
185.612259 155.398209 168.460831 
185.562225 155.462204 169.105667 
185.604248 155.486053 169.595459 
185.597763 155.517517 170.144623 
185.633789 155.534149 170.652878 
185.625885 155.557114 171.160629 
185.639709 155.574799 171.673309 
185.678558 155.585831 172.170303 
185.674759 155.607040 172.706482 
185.706787 155.618393 173.195633 
185.686447 155.640747 173.717880 
185.596024 155.678696 174.338623 
185.626358 155.678085 174.831528 
185.622223 155.678589 175.328629 
185.617355 155.672897 175.821472 
181.405930 156.572617 176.348465 
181.334061 156.604630 175.796127 
183.709167 156.024017 177.393784 
182.829025 156.215286 177.285568 
183.287552 156.121292 177.168564 
180.927383 156.672165 176.865097 
183.413513 156.044189 178.465408 
182.642670 156.223434 178.966446 
182.009933 156.423187 180.331299 
181.988419 156.438583 176.337082 
185.632370 155.659241 181.345078 
185.644394 155.670883 181.849716 
185.622787 155.680908 182.322586 
185.621750 155.677612 182.906128 
185.607666 155.671219 183.375153 
185.614792 155.653488 183.906555 
185.608459 155.640060 184.419510 
185.568619 155.640503 184.872055 
185.630081 155.621307 185.502029 
185.608353 155.630615 186.040131 
185.549988 155.648392 186.489136 
185.607651 155.635681 187.075562 
185.608978 155.628922 187.565048 
185.647919 155.595352 188.306702 
185.566681 155.582703 188.775040 
185.574127 155.548126 189.207855 
185.640060 155.478348 189.816254 
185.615128 155.387192 190.721741 
185.573563 155.361572 191.102692 
185.611435 155.271378 191.896469 
185.560577 155.232056 192.436584 
185.420807 155.234238 192.879639 
185.709702 155.002548 194.082901 
185.634399 154.965286 194.662598 
185.592590 154.895691 195.466278 
185.593475 154.836395 195.995697 
185.604523 154.740082 196.726349 
185.521805 154.674011 197.260849 
185.506256 154.543381 197.965149 
185.484573 154.424088 198.509964 
185.587509 153.875549 200.326447 
185.414093 153.770126 200.758499 
185.214676 153.210022 202.784790 
185.294586 153.074234 203.295731 
185.379822 152.902664 203.790176 
185.361267 152.102112 206.423187 
185.278366 151.934799 207.184998 
185.361237 151.779602 207.726990 
185.277985 151.623901 208.404404 
185.383698 151.558289 208.961639 
185.197464 151.040543 211.570206 
183.429047 141.265594 91.015961 
183.472763 139.576614 91.707008 
183.297226 139.158417 92.931435 
183.598709 142.535767 104.598610 
183.698425 142.449142 105.502838 
183.627579 142.331711 106.599449 
183.659500 142.339935 109.674858 
183.794449 142.416794 110.898109 
183.637909 142.810211 115.096252 
183.868668 143.605209 119.773224 
183.851944 143.752396 120.790909 
183.608612 144.092316 124.079811 
183.839218 144.190598 125.030197 
183.685867 144.363754 125.799797 
183.893814 145.642395 130.653336 
184.082657 145.757828 131.264679 
184.072906 146.470535 133.913605 
184.277893 147.391663 137.046936 
184.203445 147.720612 137.953049 
184.293976 148.395691 139.919189 
184.330902 148.901764 141.433044 
184.418961 149.372864 143.157120 
184.319641 149.914886 145.265976 
184.504776 150.316574 146.824875 
184.574005 150.537552 147.533539 
184.218338 150.724136 147.878586 
184.599869 151.775116 150.572464 
184.623688 152.187592 151.917145 
184.596024 152.335190 152.395737 
184.602783 152.904373 154.022964 
184.823502 153.008865 154.562973 
184.735886 153.385254 155.920502 
184.813095 153.599701 156.846054 
184.792877 153.745773 157.368393 
184.814896 154.288986 159.108719 
184.877533 154.390076 159.535522 
184.901871 154.528793 160.092682 
184.899124 154.822052 161.441101 
184.961685 154.841812 161.761398 
184.959076 154.878418 162.307922 
184.929718 154.910202 162.856552 
184.948654 154.934708 163.500397 
184.988144 154.962128 164.077682 
184.955444 155.007050 164.495331 
184.989731 155.138275 165.582886 
184.996613 155.207932 166.050415 
184.955719 155.290131 166.515137 
184.964157 155.421707 167.412079 
184.989868 155.474854 167.888641 
184.995667 155.538284 168.551605 
184.992081 155.575912 169.031906 
185.009232 155.606842 169.587860 
185.023239 155.632599 170.126724 
185.033463 155.655045 170.636581 
185.022781 155.680649 171.153290 
184.951401 155.724152 171.776840 
185.000046 155.735474 172.257065 
184.989059 155.763397 172.799347 
185.010910 155.781509 173.300217 
185.007446 155.804916 173.850693 
184.996689 155.821426 174.325348 
185.023560 155.822479 174.820770 
185.022461 155.820786 175.321869 
181.982285 156.458633 175.820679 
182.511047 156.309662 180.858612 
184.996201 155.724228 178.448807 
181.692078 156.540863 182.321381 
181.920822 156.425720 179.497604 
180.595200 156.755966 182.437988 
183.718872 156.082062 181.970444 
185.144730 155.684814 178.981171 
183.623611 156.017105 177.947891 
182.571198 156.271255 180.369141 
182.595001 156.303940 176.329330 
185.033920 155.779907 181.363617 
184.976456 155.812851 181.854843 
185.093750 155.803162 182.480164 
179.522232 156.956345 181.387604 
180.216187 156.831497 181.364410 
185.018250 155.798279 183.909042 
185.037369 155.778320 184.398941 
185.010956 155.769882 185.030731 
185.032867 155.760559 185.517303 
185.020523 155.763260 186.027817 
185.039322 155.758392 186.506500 
185.002182 155.756821 187.143860 
185.023102 155.738327 187.653824 
185.037018 155.707062 188.292679 
185.016373 155.679886 188.790894 
185.023636 155.638565 189.351334 
185.001816 155.590881 190.047195 
185.039963 155.545441 190.702148 
185.062714 155.506287 191.288223 
185.012512 155.483047 191.793869 
184.932968 155.451874 192.320877 
184.990875 155.379044 192.766510 
185.008209 155.232101 193.799637 
184.858124 155.222412 194.177200 
184.931122 155.084457 195.129761 
184.902008 155.013550 195.772705 
184.915436 154.918289 196.496246 
179.842163 155.008392 200.695694 
179.554886 154.805405 201.664124 
180.116165 154.052643 203.532043 
184.758362 154.412781 199.106583 
180.291138 154.851761 200.806763 
179.734848 154.908920 201.155930 
180.775040 153.784760 204.281937 
184.716156 153.065338 203.870682 
184.690979 152.726974 205.104828 
184.778580 152.282471 206.515213 
184.603714 152.170181 206.955917 
184.090225 150.880539 210.253311 
184.341690 150.979446 210.663467 
184.509415 151.205368 211.513153 
182.681091 141.792755 91.128502 
182.076141 141.814056 96.048660 
182.712158 140.704147 96.434067 
182.972626 142.614426 104.534721 
174.851028 143.904114 102.031929 
183.059250 142.477264 106.586548 
182.622864 142.983994 112.502808 
182.789520 142.922058 113.612007 
182.655029 142.998535 114.639999 
183.049866 143.613480 119.472450 
182.981171 143.913223 121.625641 
183.210938 144.113892 123.778046 
182.994659 144.290253 124.659523 
183.085968 144.421616 125.394920 
183.161682 146.302780 132.524277 
183.264038 146.397308 132.989853 
183.326111 146.640701 134.037384 
182.975800 146.859726 134.662384 
183.421158 147.584473 137.033157 
183.622177 148.251724 138.936310 
183.592255 149.600342 143.064392 
183.663086 149.716675 143.646637 
183.907455 150.059265 145.495590 
183.559387 150.193649 145.784332 
183.541367 150.311081 146.229919 
183.802460 150.983444 148.443512 
184.006714 152.090790 151.223862 
184.028519 152.208862 151.689880 
183.942886 152.377167 152.277725 
184.021484 153.070480 154.101471 
184.045013 153.342529 155.108002 
184.018417 153.459976 155.606277 
184.141159 153.657822 156.543045 
184.191422 153.850266 157.268509 
184.304306 154.276596 158.699799 
184.222809 154.451797 159.311096 
184.262268 154.569702 159.794449 
184.312378 154.857117 161.057205 
184.251724 154.933701 161.584732 
184.230499 154.980652 162.093979 
184.311157 155.035645 162.993210 
184.278961 155.100449 163.687653 
184.221558 155.164825 164.230850 
184.557083 155.116623 164.614594 
184.394821 155.231766 165.240341 
184.400818 155.310120 165.824905 
184.361908 155.459869 166.745468 
184.367523 155.525299 167.207504 
184.380203 155.604782 167.875397 
184.386185 155.657883 168.453079 
184.374252 155.697754 168.958923 
184.414978 155.728043 169.593323 
184.383423 155.761246 170.085617 
184.439209 155.774124 170.557800 
184.501602 155.780640 170.948410 
184.366180 155.851730 171.780411 
184.403549 155.867081 172.233658 
184.413544 155.892410 172.753983 
184.416870 155.917130 173.249466 
184.422745 155.938995 173.781158 
184.365112 155.969315 174.374390 
184.435028 155.957825 174.827454 
184.388855 155.963943 175.314392 
182.580490 156.325821 175.875916 
183.257675 156.118362 180.857727 
182.314926 156.310623 178.657318 
180.846237 156.693726 178.709518 
185.611160 155.596298 179.457962 
180.594818 156.744247 177.229248 
182.259491 156.340851 177.475677 
183.112274 156.104385 178.983551 
183.329788 156.073456 180.347519 
183.198578 156.201035 175.752686 
183.908279 155.971588 180.854568 
184.386108 155.906937 181.361008 
180.777298 156.725403 181.337845 
180.194000 156.831192 182.894180 
181.896469 156.490677 181.667252 
180.791000 156.714569 182.903824 
181.378723 156.600616 181.350876 
184.428986 155.909485 184.562042 
184.430847 155.897690 185.008896 
184.432571 155.889893 185.511993 
184.418808 155.888000 186.015900 
184.390793 155.883835 186.658005 
184.412857 155.867645 187.139633 
184.398117 155.851181 187.643021 
184.434586 155.812881 188.294342 
184.405670 155.790131 188.797318 
184.375793 155.753387 189.665985 
184.462372 155.719162 190.072083 
184.366318 155.740067 190.569687 
184.298111 155.747925 191.070770 
184.335663 155.702454 191.611816 
142.395432 158.034073 222.715378 
184.385834 155.506241 193.090668 
184.332748 155.444183 193.617874 
184.348816 155.286499 194.666779 
184.301575 155.241531 195.075394 
184.317978 155.146515 195.749634 
180.990128 154.864151 200.177383 
161.487930 148.186691 118.235809 
157.357132 155.053375 143.586975 
181.419022 153.524384 204.990311 
181.613358 154.857361 199.730240 
161.557602 149.768478 126.088387 
169.346725 146.174210 116.001793 
181.817001 155.584824 196.530426 
184.024689 153.291794 203.770187 
183.866287 153.230850 204.242767 
184.009842 152.762024 205.680054 
183.965637 150.732315 209.732620 
183.984253 150.796600 209.976517 
183.840454 151.069168 210.657394 
183.836197 151.347000 211.486099 
181.896881 142.364609 91.029839 
181.563889 142.682434 95.185349 
181.717758 141.986389 96.171623 
181.971176 141.411499 97.305359 
182.257767 142.703293 104.723442 
181.571136 142.923859 107.159332 
182.115524 142.780640 108.081001 
182.563797 142.982666 112.680473 
182.089081 143.074127 113.355156 
181.984207 143.135193 114.529762 
181.952286 143.209839 115.536690 
182.279510 143.931763 121.415245 
181.991867 144.097504 122.435211 
182.207031 144.407043 124.292282 
182.379654 145.236877 127.682869 
182.552811 146.033188 130.909653 
182.353989 146.360931 131.985397 
182.556870 146.758331 133.844147 
182.612625 146.909454 134.572754 
182.603287 148.511154 138.804245 
182.845963 149.186020 140.848572 
182.959702 149.377258 141.507812 
182.954956 149.940506 143.911026 
182.901535 150.081299 144.657242 
182.780014 150.198105 145.156998 
183.080246 150.718567 147.300354 
183.128616 150.883926 147.809738 
183.393066 152.054291 150.884628 
182.996002 152.168045 151.267212 
183.129211 152.305237 151.903564 
183.463257 153.341293 154.554077 
183.471466 153.435913 154.942169 
183.430038 153.557114 155.505173 
183.503479 153.705383 156.191635 
183.588608 153.999130 157.282959 
183.548203 154.214859 158.030884 
183.588669 154.539413 159.345184 
183.691727 154.782852 160.370316 
183.652756 154.927841 161.025345 
183.660645 155.008301 161.560516 
183.684494 155.065933 162.135529 
183.614105 155.116989 162.528763 
183.702972 155.230072 163.562943 
183.588333 155.353088 164.395630 
183.702850 155.369843 164.865555 
183.616028 155.472946 165.608597 
183.748825 155.498398 166.052658 
183.758621 155.577942 166.626007 
183.675217 155.715897 167.523880 
183.749619 155.745407 167.947006 
183.772842 155.784775 168.458771 
183.777328 155.819443 168.963638 
183.791168 155.850372 169.522949 
183.886276 155.859055 170.013565 
183.656799 155.950485 170.800568 
183.782318 155.949173 171.246933 
183.739471 155.985779 171.730560 
183.811234 156.001038 172.265503 
183.802063 156.032715 172.773346 
183.838684 156.050247 173.248032 
183.879333 156.060089 173.675491 
183.779144 156.101532 174.361267 
183.815125 156.095108 174.819717 
183.780426 156.094040 175.335800 
183.743073 155.973740 180.262161 
183.757401 155.960434 179.952301 
181.932053 156.414474 177.881546 
184.176865 155.870468 178.932114 
183.318237 156.185791 182.378906 
183.670349 156.060837 176.774445 
180.961578 156.658569 178.112534 
183.690872 155.971359 178.943268 
183.200623 156.177444 176.306885 
183.813782 156.052139 176.324020 
183.826950 156.067841 175.854980 
181.389099 156.594208 182.936844 
179.935822 156.876907 182.328964 
